ply
format ascii 1.0
comment VCGLIB generated
element vertex 777
property float x
property float y
property float z
property float nx
property float ny
property float nz
element face 0
property list uchar int vertex_indices
end_header
0.0229473 0.0209544 0.0374155 0.651905 0.756374 -0.0540185 
0.0293981 0.0167403 0.067903 0.835409 0.544312 -0.0762595 
-0.00273891 -0.0115412 0.000615596 -0.00892429 -0.00670353 -0.999938 
-0.0341604 -0.0108762 0.135172 -0.967707 -0.223255 -0.117051 
0.0170076 -0.0357492 0.147438 0.3043 -0.942823 -0.135966 
0.0219726 -0.0214226 0.0642844 0.751406 -0.659836 -0.00228376 
-0.0177859 -0.0261441 0.0296713 -0.690378 -0.716074 -0.103035 
0.0336941 -0.0155547 0.098198 0.893813 -0.443329 -0.0675058 
0.0166011 -0.034418 0.174888 0.40928 -0.907662 -0.0929506 
-0.0362428 0.00409824 0.122023 -0.996491 0.0682061 -0.0485124 
-0.033366 -0.00082761 0.104407 -0.99489 -0.0742855 -0.0683747 
-0.00212842 0.0266476 0.0413898 -0.0714932 0.993268 -0.0911451 
0.0146796 -0.0349899 0.129136 0.386026 -0.922159 0.0246247 
-0.0220252 0.0273898 0.110294 -0.587717 0.808425 -0.0322158 
-0.015417 -0.0285106 0.0429353 -0.539403 -0.835616 -0.103878 
0.0101652 -0.0325757 0.111245 0.270951 -0.959825 -0.0729422 
-0.0254931 0.0266167 0.159999 -0.683287 0.727885 -0.0574561 
-0.0290708 -0.0177965 0.0740692 -0.880493 -0.47391 -0.0119297 
-0.00877212 -0.0298021 0.0124458 -0.340613 -0.935682 -0.0920945 
0.0220423 -0.0326404 0.141766 0.459455 -0.883195 -0.0941727 
-0.0371615 0.00927623 0.152548 -0.96029 0.270104 -0.0699065 
0.0277906 0.0274543 0.148061 0.693607 0.719109 -0.0423334 
0.00308156 -0.0314638 0.0243931 0.095749 -0.994002 -0.0528336 
-0.0234059 0.0207361 0.0557861 -0.691509 0.705656 -0.154482 
-0.0202128 -0.027705 0.115198 -0.566352 -0.823054 -0.0427593 
-0.0213694 0.0262671 0.0923877 -0.572465 0.816281 -0.077259 
-0.0297957 -0.0216055 0.110555 -0.842141 -0.534023 -0.0749544 
0.00381429 0.035515 0.117373 0.0105265 0.99296 -0.117982 
0.00402234 0.0316316 0.104418 0.0565383 0.996831 -0.0559674 
-0.0283024 -0.0166431 0.0562596 -0.909324 -0.411619 -0.0608213 
-0.00895554 0.0159061 0.000530764 -0.153673 0.254267 -0.954847 
0.0300458 0.0190461 0.13488 0.829901 0.54901 -0.0992609 
-0.00313536 0.0374883 0.147536 -0.0788163 0.995675 -0.0491922 
0.00384004 0.0383731 0.159823 0.0778832 0.992061 -0.098738 
-0.0154702 -0.0333326 0.110785 -0.419051 -0.907218 -0.0367538 
-0.0293879 -0.0249461 0.172122 -0.786129 -0.616579 0.0427987 
0.0106672 0.0271276 0.0115887 0.276974 0.9529 -0.123558 
-0.0337807 0.00767466 0.0988564 -0.973714 0.219078 -0.0623333 
-0.0312445 -0.00452347 0.0860891 -0.980814 -0.140482 -0.13516 
0.0309173 0.0147615 0.0734781 0.86272 0.503484 -0.0471045 
0.00386035 -0.0390194 0.154274 0.103269 -0.993685 -0.0438714 
0.00914909 -0.0367032 0.166199 0.188511 -0.980216 -0.0603331 
-0.00345378 -0.0324942 0.0497505 -0.118129 -0.990834 -0.065529 
-0.0341716 -0.0104806 0.144456 -0.970183 -0.219375 -0.103052 
-0.01709 -0.0304155 0.0798417 -0.496148 -0.863333 -0.0921603 
0.0355945 0.00933874 0.147413 0.96626 0.249302 -0.0647295 
0.0265198 -0.0225132 0.0675644 0.764709 -0.643048 -0.0413443 
0.0305191 0.00585693 0.0121449 0.95401 0.286387 -0.0885822 
-0.0158546 0.0243766 0.0247366 -0.454746 0.89019 -0.0277117 
0.0178663 0.0271329 0.0613254 0.511368 0.855509 -0.0812815 
0.0308423 -0.0291437 0.172868 0.684151 -0.728561 -0.0337001 
-0.00926049 0.032203 0.122954 -0.329503 0.936836 -0.117333 
0.0395286 0.00218476 0.142074 0.994141 0.104514 -0.0275843 
-0.028896 0.0215694 0.116863 -0.75363 0.656565 -0.0310421 
-0.0151484 0.0369187 0.172695 -0.432478 0.901567 0.0118303 
0.00919518 -0.0297167 0.00611842 0.279853 -0.86628 -0.413813 
0.00481279 -0.034885 0.0886756 0.0311165 -0.996144 -0.0820314 
0.00989452 0.0252519 0.0374133 0.276611 0.960553 -0.0287227 
-0.0238451 -0.020708 0.0754595 -0.798049 -0.600938 -0.0446289 
0.0219557 -0.0302095 0.11066 0.50751 -0.860324 -0.0477142 
-0.0275886 0.0223938 0.110247 -0.723915 0.688864 -0.0376018 
0.00964091 -0.0366165 0.129444 0.273496 -0.961543 0.0251858 
0.03652 0.00859544 0.116016 0.977018 0.204319 -0.0607386 
-0.0212758 0.0318463 0.153419 -0.558151 0.827131 -0.0657372 
0.0236052 0.0208856 0.043392 0.668552 0.742377 -0.0437623 
-0.00895948 0.0380559 0.173557 -0.258684 0.965425 0.0321962 
0.0206695 -0.0263591 0.104324 0.551459 -0.829021 -0.0928324 
-0.0251872 -0.0214386 0.0558683 -0.799496 -0.578848 -0.160437 
0.00786635 0.0227732 -0.000493557 0.113603 0.456834 -0.882268 
-0.0240544 0.0270249 0.122882 -0.655913 0.752668 -0.0571771 
0.0158802 0.0253614 0.0248459 0.463239 0.886233 -0.000907163 
-0.029369 -0.0102159 0.0735355 -0.955745 -0.291557 -0.0393115 
0.0103962 -0.0148625 0.000780314 0.0320752 -0.114366 -0.992921 
0.0166724 0.0359927 0.166132 0.41573 0.907775 -0.0557951 
0.0100154 0.0304184 0.0984734 0.314518 0.945973 -0.0788194 
-0.0211589 0.0266692 0.128455 -0.643832 0.7597 -0.0913095 
0.0354684 0.00491923 0.0863842 0.984223 0.176781 -0.00737597 
0.0164766 -0.0278167 0.03108 0.517305 -0.855568 -0.019968 
0.00370044 -0.0319724 0.0369864 0.0571539 -0.996896 -0.0541466 
0.0258887 0.00784774 0.0207013 0.943814 0.32954 -0.0248664 
-0.028085 -0.00400645 0.00156347 -0.739877 -0.0387973 -0.671622 
0.0208734 0.0243868 0.0924686 0.580959 0.812763 -0.0436225 
-0.0273396 -0.0264612 0.127672 -0.716835 -0.684733 -0.131484 
-0.0286242 0.00916122 0.0736807 -0.950508 0.283156 -0.127892 
-0.00314685 0.0356171 0.117027 -0.118512 0.981653 -0.149373 
-0.0370286 -0.0065556 0.136144 -0.986198 -0.114763 -0.119344 
0.00272079 -0.0364045 0.110537 0.0828152 -0.992354 -0.0915148 
0.0340773 -0.0135127 0.0908953 0.958941 -0.283064 -0.0175336 
0.0355671 0.00566216 0.136679 0.963329 0.258482 -0.0720007 
0.0104107 -0.0402374 0.172841 0.227791 -0.969004 -0.0956167 
0.011512 -0.0347942 0.149865 0.176416 -0.978105 -0.110395 
-0.00981027 0.0358079 0.135575 -0.328833 0.943453 -0.0420174 
-0.00504337 -0.031904 0.0986202 -0.111047 -0.982577 -0.149031 
0.00395966 -0.0367775 0.147661 0.140083 -0.986626 -0.0833476 
0.031332 0.00111583 0.0147587 0.982313 0.184702 -0.0307733 
-0.0357653 -0.0007727 0.109443 -0.997234 -0.0436886 -0.0601328 
-0.003747 0.0360819 0.159989 -0.140274 0.983423 -0.114906 
0.0235281 -0.0235496 0.0427843 0.701332 -0.710968 -0.0515518 
0.0149576 -0.032668 0.0921453 0.406242 -0.91247 -0.0486309 
0.0173231 0.035013 0.15353 0.416737 0.905405 -0.0810702 
-0.0028632 -0.0310991 0.018416 -0.153417 -0.987999 -0.0179274 
0.016044 -0.0249474 0.0490391 0.508126 -0.86015 -0.0441559 
0.0158172 0.026935 0.0871731 0.491325 0.870504 -0.0286627 
-0.0219934 0.0215851 0.050582 -0.681238 0.727778 -0.0790809 
0.0292452 -0.0208787 0.08088 0.792004 -0.604584 -0.0849 
-0.0297635 0.020474 0.122829 -0.775068 0.629611 -0.0534652 
-0.0320758 -0.00676477 0.0986098 -0.987977 -0.13936 -0.0669415 
-0.0225009 -0.0166446 0.0314725 -0.825486 -0.553101 -0.112482 
0.0231437 0.0218609 0.0493865 0.644213 0.762309 -0.0622466 
0.0186218 0.033667 0.141591 0.430353 0.902655 -0.00327058 
0.0290709 -0.0280015 0.154834 0.753372 -0.656332 -0.0407355 
0.0217225 -0.031121 0.117423 0.50645 -0.857283 -0.092599 
-0.00909369 0.0269987 0.0181563 -0.339678 0.940015 -0.031469 
-0.0153345 0.0238032 0.0121678 -0.506278 0.854565 -0.115768 
0.0230028 -0.0271889 0.0801524 0.662121 -0.748447 -0.0377366 
-0.0310357 -0.018707 0.10396 -0.876526 -0.47232 -0.092824 
0.0292504 0.0128788 0.0878049 0.908866 0.416689 -0.0182743 
0.0230585 0.0244437 0.0745764 0.604237 0.794969 -0.0540532 
-0.017497 0.0207238 0.0393202 -0.606642 0.794897 0.0111286 
0.0383719 2.16514e-05 0.123796 0.999335 -0.0316357 -0.0181482 
0.0302004 -0.0171571 0.067408 0.819282 -0.570485 -0.057655 
-0.0219689 -0.0254198 0.061506 -0.648176 -0.758751 -0.0645367 
-0.01591 -0.0359374 0.147622 -0.330777 -0.943551 -0.017271 
-0.0269237 -0.0285969 0.141655 -0.69396 -0.716509 -0.0709534 
-0.00995429 0.026747 0.0560018 -0.386969 0.919384 -0.0706296 
0.00274973 0.0289387 0.0248428 0.043903 0.998482 -0.033271 
0.0153399 0.0339305 0.128989 0.341875 0.938445 -0.0494285 
-0.0347235 -0.0228892 0.172211 -0.848778 -0.522284 0.0824336 
0.0295473 -0.0269338 0.147792 0.790568 -0.609094 -0.063301 
-0.0254277 -0.0266111 0.109883 -0.723184 -0.690606 -0.00820804 
-0.0361448 0.00842908 0.135319 -0.980716 0.191242 -0.0402719 
-0.0343864 -0.00444716 0.0920242 -0.990452 -0.124128 -0.0599797 
-0.0340011 0.00523227 0.0921256 -0.989229 0.12732 -0.0722193 
-0.0344068 0.0175349 0.15792 -0.859097 0.509427 -0.049372 
-0.00909752 -0.0122388 0.00107937 0.000883584 -0.0117562 -0.999931 
0.00968669 -0.0312578 0.0429717 0.289175 -0.95668 -0.0337784 
0.0230972 -0.0125297 -8.35983e-06 0.427747 -0.222872 -0.875991 
-0.0228611 0.0191045 0.0366441 -0.73628 0.676662 -0.00459975 
-0.00247313 -0.00498243 0.000340819 -0.0178731 -0.0101701 -0.999789 
0.0313871 -0.00838679 0.0303655 0.965575 -0.259843 -0.0121559 
-0.0219109 0.0242494 0.07995 -0.620777 0.779529 -0.0834861 
0.0360484 -0.0110544 0.111468 0.970603 -0.236883 -0.0426246 
-0.0213934 -0.0283685 0.0926366 -0.579328 -0.80478 -0.129266 
0.0384629 0.00833422 0.140801 0.957495 0.284635 -0.0467625 
-0.0259656 -0.0101917 0.0304522 -0.920583 -0.389814 -0.0239124 
-0.0269754 -0.0159172 0.0788061 -0.889791 -0.45502 -0.0350583 
-0.0289015 0.00439277 0.0115462 -0.968179 0.159929 -0.192491 
-0.0294031 -0.00502239 0.0185274 -0.988314 -0.149248 0.0309811 
0.0226808 0.0329069 0.1665 0.565554 0.822755 -0.0567687 
0.0371776 0.00251058 0.110881 0.997761 0.00204516 -0.0668539 
0.0225018 0.0237212 0.0618487 0.596353 0.797034 -0.0953955 
0.0229443 -0.0286573 0.0987078 0.609552 -0.790836 -0.0549966 
0.0220938 -0.00404833 0.000136554 0.297087 -0.0303935 -0.954367 
0.0289548 -0.0148171 0.0245519 0.901234 -0.433282 0.0066686 
0.0290316 -0.0188551 0.0620008 0.821596 -0.569954 0.0115269 
0.0274931 -0.0197217 0.0484082 0.75806 -0.643692 -0.104903 
-0.0282662 0.0187542 0.0923114 -0.797389 0.596446 -0.0917744 
0.0203705 -0.028222 0.0668844 0.625539 -0.778363 -0.0534057 
0.0034827 0.0364576 0.13561 0.0698333 0.997022 -0.0327257 
0.023213 -0.0349945 0.174898 0.53833 -0.841472 -0.0460996 
0.0385801 0.00231692 0.129474 0.996014 0.0211363 -0.0866623 
0.0198589 -0.035152 0.159703 0.457482 -0.889056 0.0170144 
-0.0285068 0.00701754 0.0179823 -0.957901 0.286478 -0.018846 
0.0407052 0.010823 0.172573 0.942434 0.33139 -0.0447172 
0.039674 0.010911 0.16608 0.9637 0.265311 -0.0298774 
0.0119858 0.0342311 0.153512 0.306251 0.947442 -0.0925425 
0.00940647 -0.0232649 0.000273317 0.155655 -0.453486 -0.877566 
-0.00248801 0.0361478 0.129628 -0.109984 0.98897 -0.0992092 
0.028371 0.02741 0.154174 0.679411 0.732188 -0.0479687 
-0.0215211 -0.0290785 0.0992667 -0.63123 -0.77161 -0.0785261 
-0.0251527 -0.019826 0.0913687 -0.791119 -0.593238 -0.148996 
-0.0166251 0.0327787 0.166031 -0.464846 0.883811 -0.0528778 
-0.0134969 0.0321382 0.141289 -0.42111 0.902331 -0.0920088 
-0.0217779 -0.0325281 0.141678 -0.569596 -0.820156 -0.0539021 
0.0334556 -0.017521 0.111254 0.883117 -0.459033 -0.0969209 
0.040408 -0.00417136 0.153953 0.988913 -0.145375 -0.0302943 
0.0403553 0.00190628 0.154081 0.996501 0.0406651 -0.0730258 
0.0276365 -0.0167135 0.0125444 0.831181 -0.540849 -0.128917 
-0.0242034 -0.0288014 0.11915 -0.691242 -0.722238 -0.0235926 
0.0290457 0.0256755 0.141438 0.74508 0.665474 -0.0447157 
-0.0139268 0.033226 0.154109 -0.434753 0.896982 -0.080081 
-0.00988905 0.0302732 0.067915 -0.268664 0.955146 -0.124558 
0.000556248 -0.0278526 0.0297178 -0.0843508 -0.994012 -0.069456 
0.0288123 0.0262945 0.172133 0.706487 0.70744 -0.020132 
0.0203055 0.0272038 0.0810413 0.537495 0.842032 -0.0456104 
0.0160104 0.0357224 0.160162 0.395185 0.912528 -0.105458 
-0.0159242 0.0295507 0.0924223 -0.450856 0.890102 -0.0666955 
-0.00287929 0.0307854 0.0556702 -0.109339 0.991558 -0.069692 
-0.035033 0.0148593 0.147805 -0.93234 0.358699 -0.0455828 
-0.0314834 -0.00517307 0.0490578 -0.992492 -0.105172 -0.0624349 
0.032379 -0.0264208 0.177189 0.749071 -0.662392 -0.0113652 
0.00312555 -0.035376 0.0936404 -0.0355461 -0.99181 -0.122677 
0.0103094 -0.0316664 0.0555654 0.298317 -0.950494 -0.0870001 
0.0317917 -0.0162749 0.0789605 0.842378 -0.527138 -0.111913 
0.00335562 0.0292937 0.0308725 0.0303704 0.999279 0.0227781 
0.00341838 0.0281517 0.00693932 0.0295789 0.960405 -0.277033 
-0.021666 -0.0186025 0.0376907 -0.80813 -0.572622 -0.137947 
0.0210459 -0.0284816 0.135009 0.524489 -0.844889 -0.105234 
-0.0223807 0.0192144 0.0308781 -0.740614 0.671868 0.00913406 
-0.0159507 0.028485 0.0791575 -0.460966 0.882232 -0.0957969 
0.00902383 0.0272302 0.00595073 0.235669 0.915432 -0.326259 
0.0282218 -0.0113324 0.0016225 0.672968 -0.25669 -0.693704 
-0.0282734 0.00163002 0.00146489 -0.698724 0.0614534 -0.712747 
-0.00668571 0.0258647 0.0445507 -0.341742 0.935849 -0.0860145 
-0.0242486 0.0266576 0.15471 -0.668477 0.743481 -0.0193602 
0.0126903 -0.0352759 0.123164 0.378227 -0.925602 -0.0143087 
-0.0224887 -0.0262019 0.0742934 -0.621381 -0.783441 0.0102471 
0.00874135 -0.0354127 0.104591 0.2192 -0.973539 -0.0646079 
0.0100343 0.0308598 0.0686274 0.203796 0.972782 -0.110279 
0.015289 0.0300776 0.0799033 0.421962 0.90573 -0.0400062 
0.0256022 0.0155402 0.00689286 0.733606 0.551337 -0.397304 
0.0388243 0.00817969 0.17722 0.983479 0.167987 0.0674479 
-0.0164445 -0.0338456 0.123108 -0.432773 -0.899692 -0.0571146 
-0.0285312 0.00888942 0.0312511 -0.948976 0.315049 -0.013714 
-0.0206108 0.0315825 0.147452 -0.539812 0.837591 -0.0839382 
-0.0347603 0.00761734 0.111412 -0.964118 0.256391 -0.0688554 
-0.0218978 -0.0241842 0.0495821 -0.715551 -0.692747 -0.0899357 
-0.0177791 -0.0214762 0.0244277 -0.665591 -0.746312 -0.0028029 
0.0353832 -0.0177794 0.135788 0.871738 -0.481294 -0.0918102 
-0.0321956 0.0141386 0.104484 -0.912722 0.406271 -0.0433778 
-0.0407031 0.00175107 0.173057 -0.989691 0.115084 0.0852487 
-0.0348021 0.0127893 0.17232 -0.941896 0.334761 0.0277053 
-0.0280101 -0.0293513 0.161287 -0.667933 -0.741687 -0.0613692 
-0.00267758 0.0283819 0.0618978 -0.174144 0.982313 -0.068817 
0.0312093 0.00118233 0.00643875 0.927598 0.17704 -0.328965 
-0.0171214 -0.0338906 0.129073 -0.435759 -0.897734 -0.0647217 
0.0425343 -0.00334541 0.175793 0.996075 -0.085684 0.0222209 
0.0158914 0.0262663 0.0367855 0.472979 0.879337 -0.0552856 
-0.0347362 -0.0110637 0.110643 -0.963701 -0.245421 -0.105109 
0.0152525 0.0259286 0.06784 0.419956 0.893258 -0.160396 
-0.0193598 0.0255053 0.0678579 -0.607448 0.786413 -0.112083 
0.0151701 -0.0376079 0.165579 0.309476 -0.94963 -0.0492748 
0.0152547 -0.0283966 0.0244417 0.48804 -0.872132 -0.0346828 
0.029269 0.0155478 0.0983692 0.835091 0.526649 -0.158948 
0.00401653 -0.0368711 0.117165 0.0974173 -0.992174 -0.0781077 
-0.0338026 -0.0153505 0.166226 -0.932739 -0.358917 -0.0343055 
0.0301495 -0.0181427 0.0736167 0.801909 -0.584004 -0.126018 
0.03407 -0.00881432 0.0733873 0.951251 -0.301665 -0.0641797 
0.0294509 0.0229843 0.16076 0.721481 0.689677 -0.0617267 
0.0348173 -0.0177085 0.129245 0.862233 -0.502903 -0.060349 
-0.00362275 -0.0323352 0.0429335 -0.128555 -0.986973 -0.0967405 
0.0159966 0.0334459 0.12302 0.343309 0.932302 -0.113807 
-0.00751237 -0.0354409 0.104223 -0.221027 -0.96976 -0.103506 
0.0303397 -0.010159 0.021957 0.95396 -0.298942 0.0243929 
0.010011 0.0276917 0.0188836 0.221614 0.974462 -0.0362205 
0.0254952 0.015968 0.012202 0.811694 0.578192 -0.0827447 
-0.0296166 -0.0140943 0.0986985 -0.949481 -0.305616 -0.0713121 
0.0297678 -0.016947 0.0540803 0.854113 -0.517959 -0.0469981 
-0.00382095 0.035646 0.122992 -0.155348 0.980641 -0.119205 
-0.0101683 -0.0348453 0.142722 -0.192909 -0.980142 -0.0459049 
-0.00990688 -0.0363557 0.123104 -0.245329 -0.968305 -0.0468986 
-0.0139654 0.0264765 0.0426857 -0.439175 0.895742 -0.0690791 
0.0153152 0.0317145 0.098478 0.379255 0.920752 -0.0915517 
0.0320345 -0.0183206 0.0928423 0.829017 -0.554247 -0.0744369 
0.0143791 -0.0293526 0.0370233 0.440411 -0.897779 -0.00569416 
0.0313988 -0.00445627 0.0067621 0.945641 -0.0903821 -0.312402 
0.0148117 -0.0331239 0.0986559 0.413181 -0.909926 -0.0362676 
0.0356175 -0.00998795 0.0948989 0.966992 -0.254647 0.00901065 
0.0226395 -0.0269564 0.0744167 0.689886 -0.719173 -0.0827497 
0.0132559 0.0322081 0.142893 0.302617 0.953008 0.0141063 
0.0352193 0.0194885 0.160015 0.812646 0.579263 -0.0637245 
0.0333 -0.0158907 0.144568 0.89727 -0.43754 -0.058859 
0.0380908 -0.0130493 0.147867 0.932139 -0.362043 -0.00652364 
0.0398012 0.00907297 0.16041 0.969567 0.208066 -0.129027 
0.0286636 -0.0288925 0.16036 0.666787 -0.744983 -0.0199112 
0.0257173 0.0281062 0.135599 0.701776 0.703346 -0.113205 
0.0209566 -0.0292426 0.0861029 0.586722 -0.805096 -0.0870501 
0.0231557 0.0200731 0.0308184 0.729495 0.682807 -0.0401481 
0.0198752 -0.0257275 0.0251369 0.613296 -0.789401 -0.0267281 
-0.028047 -0.0153511 0.042873 -0.873718 -0.46408 -0.14576 
0.0330431 -0.0234962 0.153795 0.844183 -0.532041 -0.0654823 
0.0316997 0.000111878 0.0215775 0.992952 0.10714 -0.0506781 
0.0343376 -0.00827911 0.125405 0.987354 -0.132828 -0.0865445 
0.0385444 -0.0104372 0.141318 0.951414 -0.30692 -0.0247431 
0.0284769 -0.0212302 0.130597 0.780341 -0.617184 -0.100761 
0.00117457 -0.0349028 0.0830322 -0.0588456 -0.995359 -0.0761482 
0.0367279 0.0175973 0.165414 0.824971 0.557073 -0.095355 
-0.0354543 -0.0170267 0.148087 -0.938516 -0.331283 -0.0971575 
-0.0349034 0.00514711 0.141925 -0.98814 0.147524 -0.0426134 
-0.0330628 0.00680609 0.0859298 -0.969367 0.206836 -0.132462 
-0.0155733 -0.0309367 0.0747378 -0.430247 -0.902636 -0.0116311 
-0.0331756 0.021219 0.165916 -0.834052 0.550444 -0.0369963 
0.0164671 -0.0274113 0.0191465 0.458837 -0.888376 -0.0159988 
0.0214354 0.0298052 0.117442 0.50845 0.845875 -0.161166 
0.0343681 -0.0166613 0.117001 0.920727 -0.388351 -0.0380018 
0.0346414 0.0042972 0.0735539 0.981333 0.18135 -0.064013 
0.0362062 -0.0179228 0.150507 0.908075 -0.417724 -0.0300971 
0.016855 -0.0302741 0.127188 0.500647 -0.865575 -0.0115108 
-0.0277527 0.0220898 0.147222 -0.746123 0.659217 -0.093449 
-0.0170515 -0.0205225 0.0184626 -0.662112 -0.748555 0.0356802 
0.0175419 -0.0189636 -1.53509e-06 0.199604 -0.288019 -0.936591 
-0.00929828 0.0302644 0.104378 -0.249556 0.968114 -0.021867 
0.00283897 0.0361054 0.123018 -0.0166187 0.996683 -0.0796723 
-0.0283088 -0.0157167 0.0496334 -0.86169 -0.490371 -0.130483 
0.00240624 0.0310113 0.0551949 0.0654706 0.992622 -0.102056 
0.0226844 -0.0226389 0.0119077 0.692076 -0.708464 -0.138239 
0.0288091 0.0211983 0.0990904 0.74133 0.663297 -0.102305 
0.0164572 -0.0335826 0.116846 0.414195 -0.909242 -0.0414857 
-0.0312094 0.0143637 0.0921814 -0.890895 0.441801 -0.10544 
-0.0272991 -0.0223928 0.131786 -0.841915 -0.536983 -0.0531861 
-0.0344612 -0.0163223 0.172257 -0.902069 -0.422596 0.0876604 
0.0389981 -0.0056491 0.135375 0.990868 -0.100184 -0.0902443 
0.0268349 0.01446 0.0175093 0.854375 0.515864 -0.062677 
-0.0281249 -0.011585 0.0113651 -0.929617 -0.349205 -0.117765 
-0.0143588 -0.0339009 0.154028 -0.322182 -0.946419 -0.0221254 
-0.0191045 -0.0318708 0.166875 -0.538658 -0.840926 -0.0518841 
-0.00323164 0.0289671 0.0307959 -0.130052 0.991462 -0.00947176 
0.000144016 0.0336717 0.0924913 -0.035194 0.9986 -0.0394839 
0.00855367 0.0312912 0.11048 0.200078 0.971807 -0.124742 
0.0341793 -0.00307742 0.0584898 0.997741 -0.00824687 -0.0666733 
-0.00250469 -0.0351674 0.0932974 -0.0711582 -0.990893 -0.11431 
-0.0229116 0.0213836 0.0936777 -0.697546 0.713622 -0.0646003 
0.0361219 0.0160515 0.147706 0.905321 0.412704 -0.100345 
-0.0031565 0.0347502 0.105088 -0.109897 0.992875 -0.0460588 
0.0346211 0.0015216 0.0684637 0.998397 0.0490939 -0.0281693 
-0.00882319 0.0353101 0.129939 -0.280738 0.955407 -0.0915588 
0.0399147 0.00207332 0.148032 0.99003 0.112261 -0.0850713 
0.00335043 0.0295299 0.0679395 0.142235 0.983809 -0.109034 
-0.0215403 0.0156385 0.000696122 -0.450721 0.395394 -0.800322 
-0.0257275 -0.0213515 0.0614624 -0.811275 -0.576918 -0.094861 
0.0163272 -0.0301305 0.0615577 0.528706 -0.843415 -0.095508 
-0.00266927 -0.0376031 0.129078 -0.0921031 -0.995535 -0.0206493 
0.0241305 -0.0187379 0.0597353 0.756971 -0.651946 -0.044297 
-0.0288986 -0.0175481 0.0675132 -0.917374 -0.396729 -0.0321126 
-0.0228045 0.00143559 5.22879e-05 -0.420184 -0.0015091 -0.907437 
-0.0181941 0.0293813 0.140801 -0.563043 0.823081 -0.0742958 
0.0306684 0.00579987 0.0190376 0.958488 0.285117 -0.00299413 
0.0384615 0.0171847 0.172581 0.885354 0.464447 0.0209055 
-0.0294654 0.0133726 0.0677643 -0.941523 0.334931 -0.0368138 
-0.0265672 0.0106185 0.0491673 -0.913583 0.401053 -0.0672547 
-0.0203756 0.0208462 0.0257995 -0.671627 0.740876 -0.00441943 
-0.0220278 0.0305362 0.172633 -0.622796 0.781923 -0.0268603 
-0.0290339 -0.021964 0.148088 -0.822771 -0.566284 -0.0486913 
-0.0360345 -0.00362645 0.115978 -0.989682 -0.132781 -0.0538442 
0.0299654 0.0217687 0.117474 0.804261 0.589255 -0.0770906 
-0.00934513 0.0310592 0.111031 -0.319573 0.947221 -0.0254177 
0.00691713 0.0152951 0.000651583 0.037073 0.123515 -0.99165 
0.0294751 0.0238876 0.166071 0.722037 0.686417 -0.0865668 
0.0264385 -0.0240101 0.136611 0.708192 -0.69954 -0.0954349 
0.0293701 0.0132757 0.0427442 0.89558 0.43525 -0.0921603 
-0.0327276 -0.00981256 0.116451 -0.960139 -0.278928 -0.0182256 
0.0287913 -0.0156916 0.0311961 0.900353 -0.432244 -0.0502911 
0.0383797 -0.00469196 0.126762 0.996842 -0.0579386 -0.0543128 
0.0260002 -0.0295519 0.136484 0.619449 -0.776433 -0.115908 
0.0392981 -0.0126123 0.176975 0.952736 -0.303616 -0.01059 
0.0327834 0.0100414 0.0678162 0.917878 0.392593 -0.058065 
-0.0286581 -0.0239828 0.117187 -0.75831 -0.650517 -0.0423657 
0.021761 0.0199378 0.0557971 0.609692 0.792019 -0.0313336 
-0.0152358 -0.0359624 0.141657 -0.337627 -0.940578 -0.0363414 
0.026749 -0.0195294 0.0371331 0.799189 -0.597346 -0.066894 
0.00944194 -0.0347531 0.0986311 0.124928 -0.990401 -0.0591521 
-0.00274101 0.0286722 0.0250013 -0.156221 0.9853 -0.0691238 
-0.0268301 0.00231114 0.0292272 -0.994812 0.0909013 -0.0456656 
-0.0166363 0.00681816 0.000711098 -0.169594 0.117384 -0.978498 
0.0214091 -0.0238902 0.0182493 0.634603 -0.772332 -0.0279839 
0.0353636 0.00140847 0.0797333 0.99481 0.0930445 -0.0411911 
0.0165503 0.0264577 0.0427548 0.492608 0.870158 -0.0127024 
-0.0023595 -0.0190645 0.000970006 -0.02115 -0.155581 -0.987597 
-0.015334 0.0269991 0.0559419 -0.466195 0.879633 -0.0943802 
0.0293397 -0.0232357 0.104957 0.769927 -0.628607 -0.109847 
-0.00966208 0.0262902 0.00663741 -0.331549 0.896462 -0.293992 
0.00929517 -0.0330787 0.06842 0.214714 -0.975378 -0.0503469 
0.0165684 -0.0267301 0.00589684 0.461419 -0.773748 -0.434059 
-0.0228994 -0.0287367 0.15367 -0.608338 -0.793677 -0.0014177 
-0.0219536 0.0317793 0.159383 -0.552063 0.829991 -0.0796361 
0.0266107 0.00964524 0.0347135 0.928835 0.356817 -0.0997364 
0.0254444 -0.0204409 0.0304339 0.802972 -0.595762 -0.0174474 
-0.036063 -0.00297627 0.154273 -0.993368 -0.0552868 -0.100813 
-0.0275458 -0.0237338 0.103471 -0.810263 -0.57784 -0.0978518 
-0.0026947 -0.036965 0.154274 -0.082513 -0.994277 -0.067866 
-0.0161989 0.0236166 0.0181085 -0.523196 0.850165 -0.0590436 
0.0236385 0.0306907 0.145831 0.534166 0.843893 -0.0501208 
-0.00312781 0.0128656 0.000827461 0.00240832 -0.0248386 -0.999689 
0.0154589 -0.0332392 0.104622 0.40212 -0.914617 -0.0421278 
-0.0181132 -0.0285257 0.0641427 -0.503322 -0.864098 0.00146699 
0.0299415 0.0059464 0.00334893 0.765032 0.315394 -0.561473 
-0.0358531 0.0100622 0.166036 -0.940071 0.339066 -0.0360705 
-0.00902169 0.0319144 0.11741 -0.315287 0.942856 -0.107778 
-0.0265853 -0.0152603 0.0164739 -0.856337 -0.512868 0.060439 
0.0331857 -0.0238269 0.160193 0.858671 -0.512481 -0.00691879 
0.00370594 -0.0317249 0.0316821 0.0290782 -0.996376 -0.0799313 
0.00202594 0.00891504 0.000787154 -0.0148864 -0.0111597 -0.999827 
0.0167645 -0.0349075 0.135142 0.402335 -0.911556 -0.0848027 
-0.0294499 0.0230788 0.141409 -0.749035 0.660102 -0.0566734 
0.0366308 0.00306709 0.102159 0.993076 0.0709095 -0.0936565 
-0.026979 0.013429 0.0365931 -0.879118 0.475968 -0.0246418 
-0.0387732 -0.00973243 0.159652 -0.974346 -0.219525 -0.0495942 
0.0224637 -0.0244714 0.0927708 0.669079 -0.742358 -0.0351856 
0.000988054 0.0395251 0.172637 0.0164318 0.999843 -0.00664243 
0.0313336 0.00751717 0.0367132 0.960603 0.264733 -0.0846074 
0.00611279 0.0339316 0.0984732 0.125282 0.992006 -0.0151341 
-0.0228574 -0.0156368 0.0218019 -0.781241 -0.62284 0.0416153 
0.0363123 -0.00630109 0.147298 0.988204 -0.152674 -0.0119989 
-0.0281319 -0.0295656 0.166846 -0.686953 -0.725951 -0.0330346 
-0.023094 -0.0345105 0.172252 -0.566314 -0.824096 0.0124123 
-0.0338181 0.0139863 0.128061 -0.919932 0.382029 -0.0882001 
-0.0312689 -0.00138097 0.042749 -0.994694 0.0463717 -0.0918391 
-0.00921418 -0.035901 0.117143 -0.286706 -0.957937 -0.0125509 
-0.0211688 -0.0340607 0.159557 -0.510745 -0.857953 -0.0552868 
0.00319332 -0.0381905 0.172177 0.0775406 -0.995663 -0.0514087 
-0.00388453 0.0279742 0.00625844 -0.166349 0.9254 -0.340532 
-0.0334279 -0.00986439 0.0920273 -0.962597 -0.265881 -0.0521052 
-0.00984263 -0.0353674 0.109853 -0.312726 -0.947278 -0.0697584 
-0.00284858 -0.0309922 0.0131133 -0.10081 -0.989384 -0.104677 
0.0212261 0.0333415 0.160156 0.550213 0.832664 -0.0627471 
-0.0224632 0.027524 0.116492 -0.584059 0.811667 -0.00841785 
-0.00355701 -0.037314 0.160409 -0.0370502 -0.996967 -0.0684467 
0.00887505 -0.0335077 0.0741108 0.180864 -0.981882 -0.0565355 
0.00335706 -0.037094 0.123104 0.162411 -0.984588 -0.0648735 
-0.0327711 -0.0198435 0.134702 -0.88916 -0.4525 -0.0681074 
-0.0277944 -0.0110101 0.0578697 -0.962705 -0.252733 -0.0965645 
-0.0325922 0.0142508 0.110842 -0.897344 0.441045 -0.0159279 
0.0388905 -0.0107431 0.15391 0.93934 -0.340618 -0.0402567 
-0.0408452 -0.00480382 0.172115 -0.998962 -0.0407077 0.0204347 
-0.00353486 -0.0310062 0.0243815 -0.16624 -0.985282 -0.0398044 
-0.0290384 0.0160845 0.0796993 -0.86239 0.500325 -0.0771867 
-0.00890114 -0.031244 0.049559 -0.312971 -0.947171 -0.0701164 
-0.0350521 0.000881553 0.135258 -0.998355 -0.0212465 -0.0532595 
0.01837 0.0257054 0.0487125 0.494954 0.866726 -0.061699 
0.031619 0.00466403 0.0306939 0.977758 0.196757 -0.0726317 
-0.00900051 -0.0328708 0.0681085 -0.285774 -0.958211 -0.0128004 
0.0103328 -0.0314001 0.0489385 0.319179 -0.944931 -0.072317 
-0.0297111 -0.0160586 0.110614 -0.924462 -0.368825 -0.0966365 
0.00341744 0.0303153 0.0493831 0.121875 0.989033 -0.0834301 
-0.0242057 0.0162653 0.0246863 -0.825824 0.563548 0.0207144 
-0.0328757 0.000371516 0.0673967 -0.998025 0.0500017 -0.0380222 
0.00400329 -0.0323985 0.0432818 0.126495 -0.989661 -0.0676106 
-0.0159992 0.0250353 0.036704 -0.440084 0.897617 0.0246997 
-0.0318175 0.0141924 0.0982413 -0.909515 0.408336 -0.0777499 
0.031465 0.00840321 0.0429661 0.943013 0.324478 -0.0737626 
0.0334766 -0.00485916 0.0496198 0.977919 -0.122027 -0.169658 
0.033302 -0.0179497 0.159144 0.892738 -0.448223 -0.0459929 
-0.0279891 0.0143621 0.053439 -0.878535 0.466297 -0.103649 
0.00876074 0.0346738 0.115721 0.179364 0.969186 -0.168843 
-0.0323675 -0.018751 0.122523 -0.898443 -0.438855 -0.0143596 
-0.032884 -0.00525905 0.0676372 -0.988541 -0.11405 -0.0988938 
-0.0258358 -0.0221255 0.068151 -0.790961 -0.611413 0.0235565 
-0.0163771 -0.026016 0.0057968 -0.527357 -0.815509 -0.23841 
0.00907507 -0.0305604 0.0303798 0.21144 -0.974752 -0.0717804 
0.0408889 0.00199519 0.160327 0.989421 0.0267141 -0.14259 
0.00935967 -0.0359363 0.117185 0.253208 -0.966263 -0.0471375 
0.0296412 -0.0239278 0.117316 0.768527 -0.639803 0.00442696 
0.033783 -0.0236789 0.166396 0.831153 -0.551479 -0.0710938 
0.0103825 0.00108974 0.000569284 -0.00489498 -0.00195404 -0.999986 
-0.0199163 -0.0251299 0.035658 -0.682608 -0.724735 -0.0938375 
0.0311565 -0.0195971 0.149177 0.894162 -0.445963 -0.0399042 
0.0316373 -0.0103702 0.0432582 0.960947 -0.248948 -0.120853 
-0.0225095 -0.0231465 0.0436221 -0.758305 -0.644388 -0.0986775 
0.0325113 0.0172321 0.110989 0.862765 0.496938 -0.0932098 
-0.0343005 0.000264287 0.0888521 -0.994057 0.0225269 -0.106508 
0.0104513 -0.0298898 0.0184551 0.329549 -0.943797 -0.0253734 
-0.0331863 0.0161066 0.167196 -0.896137 0.441719 -0.0427057 
-0.0217147 -0.0216786 0.00584768 -0.643776 -0.676806 -0.357052 
-0.0220354 0.0299971 0.166 -0.59721 0.801542 -0.0294975 
-0.0126086 0.0266435 0.0307572 -0.419679 0.906349 0.0490004 
-0.0368442 -0.0086796 0.173594 -0.971731 -0.227562 0.0628856 
-0.0262147 0.0207197 0.0863681 -0.789165 0.600129 -0.13063 
0.0327356 0.0211538 0.141529 0.826215 0.555946 -0.0910648 
-0.0263107 0.0126622 0.0120599 -0.853274 0.466134 -0.233757 
0.0265165 -0.0306971 0.176401 0.602742 -0.797931 -0.00283034 
-0.0312597 0.0125241 0.0857209 -0.9106 0.396493 -0.116627 
-0.000521913 0.0332984 0.0865206 -0.0696278 0.995622 -0.0623609 
-0.00914622 0.0361323 0.141546 -0.308749 0.949366 -0.0581221 
-0.0288918 0.000968039 0.0497538 -0.997921 0.0609818 -0.0208777 
0.0261984 0.0206099 0.0659355 0.706926 0.693663 -0.138158 
-0.0380165 0.00915363 0.159775 -0.964816 0.259306 -0.0434881 
0.0346044 -0.00354828 0.118817 0.995547 -0.0595755 -0.0730524 
0.0109994 0.0290384 0.0483965 0.259524 0.961156 -0.0939476 
0.0376269 -0.00743276 0.120772 0.989105 -0.139315 -0.0475596 
0.0158597 -0.0294817 0.0554286 0.499382 -0.862939 -0.0771639 
0.0331188 -0.0053138 0.11084 0.991439 -0.105882 -0.0764092 
-0.0176399 -0.0304183 0.0859328 -0.495616 -0.861772 -0.108232 
0.0258092 0.0260045 0.116886 0.691835 0.719237 -0.0637368 
-0.0273324 -0.0100472 0.0516647 -0.975869 -0.217485 -0.0194903 
-0.0313029 -0.0107742 0.0622559 -0.962493 -0.261962 -0.0705965 
0.0338704 0.00897554 0.0791412 0.95632 0.292321 -0.00057715 
-0.016653 -0.0314112 0.0921287 -0.436212 -0.887795 -0.14676 
-0.00920045 0.0315764 0.0805221 -0.312219 0.94741 -0.070238 
-0.0321099 0.0219381 0.159776 -0.823118 0.565762 -0.0488912 
-0.00311495 0.000672683 0.000272676 -0.0154377 0.00403415 -0.999873 
-0.00368428 0.0319727 0.0740891 -0.155239 0.978031 -0.139126 
-0.0251909 0.0206614 0.0747616 -0.794889 0.604508 -0.0521652 
-0.0265525 0.0137177 0.030634 -0.879602 0.475596 0.0104353 
-0.00334254 0.00724673 0.000531435 -0.00660717 -0.00307918 -0.999973 
0.010169 -0.0321707 0.0622991 0.326841 -0.943118 -0.0608537 
0.0367707 0.00947171 0.122946 0.966555 0.253035 -0.0417799 
0.0248528 0.0320543 0.175013 0.633974 0.771593 -0.0521678 
0.0292415 -0.0288326 0.166535 0.699672 -0.712312 -0.0554158 
0.0152873 -0.0317014 0.0801321 0.413317 -0.90942 -0.0460907 
0.0380856 0.013845 0.158366 0.903487 0.408796 -0.12883 
-0.017526 0.0197376 0.0340094 -0.664257 0.747271 0.018676 
-0.0280168 0.0152362 0.0621458 -0.875305 0.47806 -0.0727989 
-0.0100384 -0.0382058 0.153585 -0.176895 -0.982572 -0.0570966 
-0.0259168 0.0142517 0.0750508 -0.874901 0.478907 -0.0720839 
0.00474591 0.0296753 0.0361228 0.0334275 0.999333 -0.0147349 
0.0376193 0.00244543 0.117288 0.994673 0.0364788 -0.0964105 
-0.0204945 -0.0340847 0.153592 -0.468059 -0.883338 -0.0251734 
0.00409947 -0.0356025 0.0999387 0.0415559 -0.995113 -0.0895709 
-0.0145476 -0.0334732 0.105253 -0.361287 -0.930733 -0.0566385 
-0.0345635 -0.0218339 0.166899 -0.861122 -0.507619 0.0281555 
-0.0278489 -0.00676133 0.0430692 -0.969404 -0.218184 -0.112484 
0.0265689 -0.0206213 0.0994382 0.769332 -0.635917 -0.0611418 
-0.034279 -0.012481 0.153702 -0.939143 -0.333945 -0.0805706 
0.0240502 0.0182435 0.0199808 0.814373 0.577166 -0.0606287 
-0.0306204 -0.00418097 0.0375509 -0.997422 -0.0483403 -0.0530279 
-0.0312814 0.0221796 0.153309 -0.811352 0.584291 -0.0176387 
-0.00192432 0.0326248 0.111702 -0.105945 0.991349 -0.0774762 
0.0339543 -0.000205189 0.0520041 0.993964 0.0657987 -0.0877876 
0.0254096 -0.0200915 0.0251915 0.762737 -0.645674 -0.0365675 
0.00879417 -0.0346538 0.0926646 0.179169 -0.978752 -0.0997127 
0.0317831 0.00924267 0.0492763 0.936371 0.338679 -0.0922252 
0.0342257 -0.0102091 0.132022 0.958081 -0.270732 -0.0937274 
0.0321611 0.0226267 0.147508 0.785882 0.616223 -0.0515628 
-0.0250965 0.0146039 0.0187088 -0.836642 0.546144 -0.0419093 
-0.0097956 0.0377621 0.166085 -0.283636 0.954467 -0.0924309 
-0.0323585 0.0192563 0.145345 -0.847988 0.52753 -0.0512658 
-0.0372303 -0.000836477 0.1253 -0.999446 -0.0324745 -0.00727259 
-0.0343281 0.0139967 0.134232 -0.934293 0.353517 -0.0460736 
0.0113857 0.033382 0.10511 0.238469 0.967083 -0.0887827 
0.017642 -0.026269 0.0114659 0.52345 -0.838686 -0.150353 
0.00377082 0.0321963 0.0749213 0.0989858 0.984144 -0.147183 
-0.0208289 0.0191505 0.00549571 -0.60946 0.620297 -0.493751 
-0.0280748 -0.0265453 0.135123 -0.729892 -0.677921 -0.0876363 
-0.0251698 0.0115694 0.0438718 -0.87813 0.476439 -0.043513 
-0.00172934 -0.0384401 0.140675 -0.0127925 -0.999102 -0.0403818 
-0.00701039 -0.0378623 0.138678 -0.148307 -0.987709 -0.0493576 
-0.0303428 -0.00967625 0.0805118 -0.948649 -0.284799 -0.137677 
0.031529 0.0164696 0.0926377 0.837449 0.534238 -0.115192 
-0.0273233 -0.0143017 0.0249987 -0.809493 -0.585213 0.0473905 
-0.00889973 -0.0297091 0.0747545 -0.324108 -0.945907 -0.0145991 
-0.034861 0.00208274 0.0994671 -0.995416 0.0650669 -0.0700904 
-0.0151155 -0.0340658 0.117806 -0.422239 -0.906483 0.00193064 
-0.00944034 -0.0296183 0.0184121 -0.395632 -0.918138 0.0223146 
0.020362 -0.0300442 0.0920554 0.587346 -0.808734 -0.0312089 
0.016675 0.036404 0.172764 0.444385 0.894801 -0.0430473 
-0.0098632 0.0103095 0.000904932 -0.0349953 0.0926428 -0.995084 
0.0360181 0.00775522 0.105619 0.98504 0.161338 -0.0605485 
-0.0268505 0.0267916 0.149408 -0.70892 0.702635 -0.0611197 
0.0306884 0.0198241 0.153449 0.817192 0.576346 0.00471496 
-0.034803 -0.0138594 0.12532 -0.94357 -0.329499 -0.0332648 
-0.0297803 -0.00347158 0.0636139 -0.991671 -0.103366 -0.076835 
0.0320943 -0.00752297 0.0365907 0.985543 -0.157943 -0.061309 
-0.00943551 -0.039129 0.166175 -0.166563 -0.983871 -0.0652291 
-0.0236187 0.0164358 0.00944956 -0.796366 0.533311 -0.285273 
-0.00457161 -0.0363083 0.109858 -0.0604814 -0.993587 -0.0955372 
-0.0349146 -0.0168227 0.14109 -0.925257 -0.372416 -0.0721484 
0.0335472 0.0108268 0.0842098 0.924585 0.380226 -0.0239002 
0.0166482 0.0337887 0.13562 0.409535 0.911527 -0.0374041 
0.00352068 0.0390184 0.166124 0.113099 0.990643 -0.0763898 
0.00359163 -0.0335037 0.0621665 0.0871319 -0.99341 -0.0744674 
0.00372041 -0.00428152 0.000277862 -0.00309944 -0.00915526 -0.999953 
0.0204694 0.0305144 0.152841 0.569484 0.820059 -0.0564912 
0.0374384 -0.0171547 0.166853 0.914719 -0.392356 -0.0966759 
-0.00363759 0.0188813 0.000303358 -0.0529787 0.28337 -0.957546 
-0.0276082 -0.000499502 0.033838 -0.998699 0.0503426 0.00818295 
0.00473085 -0.0411155 0.176468 0.114447 -0.993079 -0.026388 
0.0165238 0.024537 0.0188749 0.521778 0.851511 -0.0517452 
0.0281361 -0.00169173 0.0299709 0.999307 0.0291662 -0.0231319 
-0.039008 -0.00189105 0.149809 -0.991166 -0.0236798 -0.130497 
-0.0213787 0.025683 0.0857534 -0.642391 0.759489 -0.102519 
0.019539 -0.0331921 0.131 0.462517 -0.886489 0.0146801 
-0.016056 -0.0175954 0.000403911 -0.264816 -0.271861 -0.925183 
-0.0101624 -0.0359073 0.159106 -0.187737 -0.979082 -0.0784387 
-0.0151426 0.0321234 0.116894 -0.428027 0.902485 -0.0480915 
0.0376167 -0.0122416 0.136466 0.93951 -0.338052 -0.0551558 
-0.00320464 0.0315834 0.0679398 -0.147424 0.982406 -0.114648 
-0.0352609 -0.00640953 0.107359 -0.976545 -0.197095 -0.0866792 
0.0278155 0.00136197 -3.84304e-05 0.671799 0.0653478 -0.737846 
0.029462 0.0236862 0.129024 0.777633 0.626778 -0.0493502 
0.0132791 0.0276547 0.0752695 0.404964 0.911573 -0.0709825 
-0.0292464 0.00778684 0.0398575 -0.972408 0.232467 -0.0195338 
0.00264304 -0.0374697 0.129091 0.0400089 -0.999139 -0.0110189 
-0.0340232 -0.000641644 0.083181 -0.992265 0.0146548 -0.123272 
0.0255366 -0.0192682 0.00532176 0.697207 -0.52484 -0.488309 
0.0378041 0.00751835 0.127921 0.969346 0.225227 -0.0981921 
-0.0395033 0.00180461 0.159972 -0.986178 0.147209 -0.0760446 
0.0258932 0.00706749 -0.000312671 0.57807 0.233983 -0.781721 
0.0261165 0.0190106 0.0924411 0.797532 0.59574 -0.0950621 
0.00225026 0.00234224 0.000303492 -0.00396209 0.011642 -0.999924 
-0.0154467 -0.0288763 0.0508876 -0.512303 -0.854093 -0.089837 
-0.0159619 -0.0266935 0.018419 -0.570619 -0.819192 0.0576051 
0.033648 0.0126085 0.0962125 0.915144 0.380893 -0.132026 
-0.0202852 -0.0308976 0.109863 -0.510706 -0.858126 -0.0529147 
-0.0376453 0.00818457 0.17524 -0.967125 0.247245 0.059494 
0.0252829 -0.0257027 0.0859295 0.687986 -0.722539 -0.0679179 
-0.0211432 -0.0246353 0.0888802 -0.661231 -0.737794 -0.135773 
-0.0295577 -0.00308067 0.0106051 -0.974571 -0.10546 -0.197713 
-0.031303 0.0175101 0.150444 -0.889422 0.455497 -0.038099 
0.00736533 0.00964782 0.000787884 -0.00907906 -0.0205067 -0.999749 
0.0116711 -0.0289792 0.0116801 0.300243 -0.928016 -0.220544 
0.00296015 0.0358714 0.153703 0.101331 0.991889 -0.0767358 
-0.0307554 0.00423999 0.0438088 -0.983345 0.125262 -0.131691 
0.0283365 0.00478791 0.0406321 0.977081 0.122254 -0.174262 
0.032427 0.0205291 0.171794 0.775645 0.629995 -0.0384783 
0.00364988 -0.0326723 0.0489139 0.140359 -0.988579 -0.0548655 
0.02269 -0.0327418 0.147734 0.480379 -0.864399 -0.148496 
-0.0326277 0.00407672 0.0724781 -0.974903 0.187712 -0.119699 
0.0247731 0.0276485 0.122977 0.677244 0.734228 -0.047435 
0.0345951 0.0117566 0.102355 0.936804 0.335126 -0.100441 
-0.0158548 -0.0351166 0.135696 -0.397214 -0.912706 -0.0958603 
-0.011892 -0.0244411 0.0157936 -0.525137 -0.85088 0.0153207 
-0.03456 -0.014031 0.119546 -0.952687 -0.302132 -0.0332113 
0.00607649 0.0310041 0.0600008 0.192523 0.978298 -0.0766007 
-0.00985411 0.032753 0.0984279 -0.267877 0.962313 -0.0468493 
0.0213086 0.0316003 0.133637 0.561177 0.827646 -0.00909933 
0.00284509 0.0374369 0.141583 0.11629 0.992988 -0.0212589 
-0.0170784 0.0124103 0.000130757 -0.247147 0.222707 -0.943038 
0.0285479 0.0122456 0.0222264 0.890931 0.447164 -0.0792918 
0.0254792 -0.0279899 0.171641 0.602742 -0.797931 -0.00283033 
0.0353941 -0.0132906 0.162485 0.928797 -0.370589 -0.000694108 
0.0101904 -0.0334616 0.080744 0.20441 -0.978048 -0.0404807 
-0.0283866 -0.0274785 0.146832 -0.735053 -0.67471 -0.0668045 
0.0392802 0.00146635 0.176459 0.996362 0.00346183 0.0851538 
0.00286733 -0.0344385 0.0747538 0.0213004 -0.999618 -0.0176085 
-0.0216307 0.019075 0.0182163 -0.722158 0.690362 -0.0434539 
0.0306116 -0.0234073 0.12351 0.806622 -0.590535 -0.0250802 
0.0358406 0.017655 0.154101 0.868695 0.49442 -0.0303128 
-0.0168867 -0.0231987 0.00110641 -0.397965 -0.609077 -0.686039 
0.0223257 0.00157198 6.00663e-05 0.205858 0.00967328 -0.978534 
0.0207314 -0.0315752 0.17093 0.53833 -0.841472 -0.0460996 
0.0379537 -0.00784789 0.174235 0.974209 -0.224529 0.0224575 
-0.0294182 0.00673348 0.0809471 -0.966164 0.245743 -0.0783461 
-0.0309648 -0.0237126 0.141016 -0.842885 -0.530727 -0.0887327 
0.032563 0.000902414 0.0366548 0.994101 0.0945223 -0.053188 
-0.0157439 0.0241513 0.061551 -0.510427 0.852497 -0.112752 
0.0165636 -0.0248121 0.043054 0.557349 -0.82885 -0.048674 
0.0165394 0.0246015 0.0122461 0.530272 0.841354 -0.10457 
-0.0142257 -0.0333562 0.0997507 -0.287218 -0.954106 -0.0847841 
-0.0040943 -0.0292923 0.00124142 -0.106738 -0.676939 -0.728258 
-0.0313815 -0.0256633 0.159591 -0.791849 -0.603794 -0.0916959 
0.0168469 -0.0306275 0.0742502 0.552524 -0.831584 -0.0564405 
0.0204635 0.0221364 0.0228485 0.663233 0.741863 -0.0987956 
-0.0301559 0.00974004 0.0553833 -0.944028 0.314157 -0.100577 
-0.00835877 -0.03798 0.147292 -0.123434 -0.992347 -0.00326693 
-0.0291702 0.0161283 0.116757 -0.842681 0.534159 -0.0675403 
0.0353803 -0.0122283 0.167803 0.935125 -0.33937 -0.101831 
-0.0315726 0.0186013 0.13154 -0.801073 0.590873 -0.0956651 
0.00991565 -0.0385733 0.160281 0.111629 -0.99126 -0.0703091 
-0.00951914 -0.0307124 0.0369658 -0.334332 -0.938603 -0.0851295 
-0.0153487 0.0304557 0.0984088 -0.39933 0.912955 -0.0839605 
-0.0371724 -0.00114551 0.166395 -0.998414 0.0459536 -0.0325095 
-0.033255 -0.00528996 0.0735649 -0.989989 -0.135791 -0.0385153 
0.0039333 -0.0103896 0.000460088 -0.0144646 -0.0061346 -0.999877 
-0.00895803 -4.43608e-05 0.000707969 0.00186918 -0.00492741 -0.999986 
0.037493 -0.00267923 0.113209 0.998812 -0.0319379 -0.0367923 
-0.019329 0.031267 0.134203 -0.541933 0.835215 -0.093408 
0.00244532 -0.0310647 0.0184282 0.0401308 -0.999137 -0.0107062 
-0.00431879 0.0344137 0.13534 -0.175971 0.983259 -0.0472891 
0.0158862 0.0245579 0.00627787 0.478294 0.807692 -0.344773 
-0.00312271 0.0381594 0.15417 -0.0621284 0.994584 -0.0833233 
0.0187893 0.00639673 0.000455335 0.179788 0.0371697 -0.983003 
0.00237815 -0.0338333 0.067493 0.0279856 -0.997422 -0.0660702 
-0.0196595 -0.034736 0.176549 -0.519929 -0.853278 0.0398834 
-0.0106758 -0.0328557 0.128885 -0.338339 -0.938459 -0.0694416 
0.0201151 0.0318134 0.12811 0.524205 0.850643 -0.04019 
0.000288605 -0.0320745 0.0893621 -0.0882854 -0.988399 -0.123585 
-0.0393635 0.00519396 0.165943 -0.980967 0.186908 -0.0526318 
-0.0361555 -0.00932686 0.167662 -0.971371 -0.232366 -0.0494494 
0.024741 -0.0198375 0.0761517 0.781227 -0.609152 -0.136449 
0.0211764 0.0295186 0.11107 0.524745 0.845944 -0.0949817 
0.0101629 -0.0339062 0.0860438 0.197109 -0.978509 -0.0605615 
-0.0234239 -0.0298079 0.164309 -0.629632 -0.776361 -0.0287619 
-0.0212556 -0.0221717 0.0116377 -0.684704 -0.72829 -0.0278124 
0.00488165 -0.0202802 0.000828817 0.0807986 -0.298508 -0.950981 
-0.023059 0.0161396 0.051209 -0.766242 0.639062 -0.0668768 
0.0324043 0.0242542 0.175641 0.759881 0.649729 -0.0208207 
0.00903578 -0.0312404 0.037004 0.237059 -0.969937 -0.0550022 
0.0162319 0.0149422 -5.82191e-05 0.30787 0.192942 -0.931659 
-0.0267846 0.0179444 0.0699404 -0.827204 0.5556 -0.0839228 
0.0347847 0.00391415 0.125494 0.994342 0.100857 -0.0333513 
0.00472973 0.0280235 0.0122449 0.0917948 0.991408 -0.0931841 
-0.0168322 0.0223894 0.051892 -0.603755 0.79513 -0.056983 
-0.00267887 -0.0368956 0.147645 -0.0645665 -0.997878 -0.0084361 
0.0129131 0.025343 0.00199434 0.297208 0.568058 -0.767448 
-0.0166727 0.0011889 0.00089851 -0.135906 0.0758031 -0.987818 
0.0270488 0.0299381 0.168762 0.680775 0.729008 -0.0713669 
-0.00318344 0.03275 0.0798812 -0.107479 0.992232 -0.062646 
0.0358299 0.0190545 0.176728 0.853626 0.520712 0.0135119 
-0.0332918 0.00312026 0.0782592 -0.987187 0.126582 -0.097156 
-0.0249083 0.0221847 0.120855 -0.688245 0.723729 -0.0503498 
0.0163121 0.000860617 0.000687912 0.0755299 -0.00752233 -0.997115 
0.0034714 0.0348652 0.110407 -0.012782 0.992217 -0.123865 
-0.00888762 -0.031165 0.0442561 -0.305614 -0.947431 -0.0947296 
-0.003575 -0.0317082 0.0310055 -0.126464 -0.990789 -0.0484187 
-0.0179154 -0.029687 0.120174 -0.516495 -0.856247 0.00855799 
-0.00564319 -0.0308998 0.0860298 -0.15833 -0.985236 -0.0651254 
-0.000583565 -0.0363149 0.10589 -0.0289521 -0.996961 -0.0723287 
0.0293336 0.0182221 0.127577 0.862136 0.502257 -0.0667826 
0.0313921 -0.00454561 0.0186934 0.998927 -0.0441551 0.0140007 
-0.0319714 0.0229819 0.174845 -0.811233 0.584526 0.0151496 
0.0334003 0.0165032 0.116836 0.868349 0.489367 -0.0805584 
-0.0369551 -0.0150433 0.158934 -0.927774 -0.367124 -0.0667514 
-0.0396995 -0.00573695 0.165697 -0.978604 -0.191739 -0.0746365 
0.0258563 -0.0265444 0.102523 0.668247 -0.735569 -0.111285 
0.032047 -0.0216827 0.172723 0.825724 -0.557497 -0.085888 
0.0151356 -0.0294732 0.0456594 0.463987 -0.883916 -0.0583785 
0.0294961 0.0216306 0.111693 0.795952 0.597437 -0.0976227 
0.0408187 -0.00409883 0.160118 0.97996 -0.178916 -0.0875665 
0.0410042 -0.00416835 0.166551 0.985052 -0.169803 -0.0289751 
0.00872829 0.0319832 0.0799026 0.266855 0.9581 -0.104079 
0.015865 -0.0108491 0.00062631 0.110615 -0.0512667 -0.99254 
0.0330445 -0.0019774 0.0429195 0.988454 -0.0505291 -0.142851 
-0.0307527 -0.0256771 0.153626 -0.785413 -0.616546 -0.0547387 
0.00579649 -0.0304838 0.0124737 0.148292 -0.976768 -0.154709 
0.0144574 -0.038864 0.176777 0.352028 -0.933865 -0.0630289 
0.0334315 0.00723822 0.0629497 0.954136 0.293082 -0.0610549 
0.0339965 0.000323236 0.106241 0.999852 -0.000699388 -0.0171774 
-0.0227766 -0.0289424 0.170654 -0.603545 -0.796746 -0.0304781 
0.0394828 -0.0107849 0.159871 0.955041 -0.286389 -0.0766631 
0.0310066 0.0120812 0.0552633 0.895021 0.441189 -0.0654883 
0.0385994 0.011049 0.153338 0.947811 0.306273 -0.088602 
-0.0378509 -0.0143276 0.175737 -0.931221 -0.361984 0.042362 
-0.0314058 0.00416128 0.0550744 -0.977043 0.18596 -0.103953 
0.0262293 -0.0276083 0.119273 0.666276 -0.745363 -0.0225765 
-0.0230143 -0.0186397 0.0496214 -0.806804 -0.566584 -0.167479 
0.0221751 -0.0334298 0.153716 0.48381 -0.873125 -0.0598364 
-0.00240113 0.0259796 -0.000161901 -0.0954505 0.668123 -0.737903 
-0.029521 -0.0151464 0.117376 -0.937383 -0.344516 -0.0512131 
-0.0026569 0.038724 0.166524 -0.0745524 0.995752 -0.054036 
-0.0100131 -0.0234574 0.000375554 -0.162498 -0.401649 -0.901262 
0.0153296 -0.0244929 0.000556111 0.212774 -0.49447 -0.84275 
0.00348804 0.0362553 0.12898 0.00514263 0.997118 -0.0756934 
0.0249914 0.0279508 0.164102 0.683965 0.722921 -0.0978627 
0.0212016 -0.0248704 0.0304482 0.62705 -0.778572 -0.0251894 
-0.0315983 -0.0155122 0.0913891 -0.896232 -0.429407 -0.111259 
0.0266405 -0.0215316 0.0543517 0.748677 -0.658552 -0.0761042 
-0.0223718 -0.0325238 0.147623 -0.53104 -0.846245 -0.0432022 
-0.0295898 0.000613913 0.0185946 -0.998302 0.0570452 -0.0118118 
0.00944207 0.0364727 0.14159 0.212387 0.977186 -0.000586456 
0.0100858 0.035312 0.128988 0.198409 0.979332 -0.0392821 
-0.0287173 0.00618933 0.063052 -0.976789 0.212761 -0.0248188 
-0.0219531 -0.027333 0.0840109 -0.667179 -0.741872 -0.0670671 
-0.0235794 0.0221807 0.115538 -0.691951 0.72111 -0.0346981 
-0.0112047 0.031862 0.0931146 -0.334564 0.940197 -0.0639998 
0.0303757 -0.0100913 0.0126837 0.955099 -0.2764 -0.10672 
0.028604 0.0106298 0.00621755 0.861802 0.410881 -0.297446 
-0.00221603 -0.0358939 0.100917 -0.0899184 -0.987224 -0.131542 
0.0294041 -0.022238 0.0952199 0.746749 -0.66197 -0.0645105 
0.0321678 -0.0104351 0.0491165 0.933685 -0.348786 -0.0811243 
0.0207614 0.0212066 0.0171523 0.728038 0.681207 -0.076928 
0.0191181 0.023542 0.0294802 0.61467 0.786475 -0.0603113 
-0.00282539 -0.0307309 0.00648597 -0.126974 -0.926167 -0.355095 
-0.0243438 0.0181108 0.0432852 -0.754164 0.655644 -0.0369674 
-0.00890934 0.0289307 0.0496763 -0.333007 0.941993 -0.0418943 
-0.00255171 0.0303877 0.0500331 -0.101107 0.988253 -0.114602 
0.015839 0.0282453 0.104422 0.423262 0.89784 -0.121379 
0.0101876 -0.00453223 0.000610724 -0.00885201 0.00248824 -0.999958 
0.0106793 0.029629 0.0540351 0.346229 0.9355 -0.0704676 
0.040107 -0.0107569 0.169819 0.956073 -0.283771 -0.0734777 
0.0226275 0.0270954 0.0976062 0.589942 0.797688 -0.125152 
-0.00344898 -0.0384065 0.17216 -0.123229 -0.987985 -0.0932793 
-0.0058543 0.0326434 0.0865041 -0.201631 0.977271 -0.0654718 
0.0151336 -0.0382834 0.170878 0.376754 -0.921125 -0.0979028 
-0.0302677 -0.00508396 0.0311251 -0.993291 -0.114967 0.0124936 
0.00288946 0.0284774 0.0193916 0.0430835 0.998411 -0.0363326 
-0.0108612 -0.0366218 0.134535 -0.22297 -0.973325 -0.0540674 
0.0333115 -0.00864814 0.055144 0.954557 -0.29097 -0.0644743 
0.0139955 0.00939386 0.000707179 0.0967273 0.056488 -0.993707 
-0.00654401 -0.0318916 0.0920202 -0.131664 -0.980851 -0.143513 
0.00942532 -0.0304023 0.024084 0.211233 -0.977059 -0.0271481 
0.00318045 -0.0374336 0.160184 0.048391 -0.994588 -0.0919374 
-0.0256928 0.0127616 0.00476937 -0.796205 0.405793 -0.448766 
-0.00381081 0.0368672 0.141563 -0.0995002 0.993928 -0.0469676 
0.000714337 -0.0252765 0.000333592 -0.0752678 -0.457981 -0.88577 
-0.0296515 0.000352353 0.0596939 -0.995219 0.0101501 -0.0971377 
-0.0159908 -0.0370816 0.166175 -0.379847 -0.924384 -0.0350788 
0.00342787 0.0356468 0.147537 0.0564278 0.996322 -0.0644849 
0.0225102 0.0311347 0.138929 0.571663 0.820159 -0.0232498 
-0.00880572 -0.039696 0.172138 -0.244834 -0.968756 -0.0395907 
-0.0331421 0.013984 0.120774 -0.890054 0.445742 -0.0954917 
-0.00330459 -0.03718 0.123113 -0.118374 -0.992429 -0.0327616 
-0.0379988 0.00185272 0.145897 -0.989564 0.0972478 -0.106326 
-0.0161728 0.0305904 0.104616 -0.388245 0.920729 -0.0390343 
0.0326838 -0.0120072 0.0683395 0.890231 -0.452223 -0.0546127 
-0.0097748 -0.0342852 0.0966023 -0.197435 -0.968477 -0.151893 
-0.00991819 0.0266406 0.0122013 -0.293665 0.951112 -0.0956366 
0.0246837 -0.032071 0.159013 0.562763 -0.8266 0.00558832 
