ply
format ascii 1.0
comment VCGLIB generated
element vertex 791
property float x
property float y
property float z
property float nx
property float ny
property float nz
element face 0
property list uchar int vertex_indices
end_header
0.0187319 0.0393708 0.123999 -0.429375 -0.862993 0.266232 
0.0222036 0.0222914 0.0273337 -0.677677 -0.731483 0.0754082 
-0.0318112 -0.00483111 0.092881 0.986297 0.160105 0.0398164 
-0.0237077 -0.018028 0.0477439 0.822238 0.565716 0.062374 
0.00908134 0.0396692 0.109384 -0.119383 -0.90731 0.403158 
-0.018345 0.0232383 0.00908411 0.631636 -0.724932 0.274792 
0.0304807 0.00460655 0.0625675 -0.974679 -0.21943 0.0430388 
0.0257237 -0.016663 0.0162254 -0.80217 0.582781 0.129961 
0.00378368 0.039335 0.10828 0.0361906 -0.890132 0.454263 
-0.034031 -0.0253085 0.108873 0.767328 0.508287 0.390963 
-0.0141557 -0.031808 0.0690227 0.436712 0.89662 0.0731732 
0.0193036 -0.023903 0.0258332 -0.633462 0.773156 0.0309191 
-0.0168135 0.0222953 0.0204425 0.654302 -0.742193 0.145044 
-0.0211854 -0.042705 0.120632 0.463652 0.851812 0.243809 
0.0220925 -0.0375895 0.109951 -0.45937 0.794453 0.397269 
-0.0410839 0.00376572 0.121994 0.949577 -0.163183 0.267722 
-0.0298395 0.0177557 0.0929177 0.871277 -0.488093 0.0514009 
-0.0197832 -0.0252448 0.0714056 0.622126 0.77709 0.0953444 
-0.0195576 -0.0295167 0.0767099 0.601789 0.792653 0.0977299 
-0.0308095 0.00457989 0.0822518 0.968739 -0.247739 0.013071 
-0.0344819 -0.00280443 0.0817812 0.999196 0.0361981 0.017226 
-0.0319334 0.0093885 0.0661237 0.964079 -0.244005 0.104943 
-0.012794 -0.0426124 0.11303 0.33218 0.85753 0.392808 
-0.0297161 0.0250505 0.107775 0.608634 -0.659844 0.440648 
-0.0257729 -0.0218065 0.0599188 0.794492 0.599709 0.0955584 
0.0259439 -0.018402 0.0353321 -0.795818 0.604299 0.0386849 
-0.023871 0.0178611 0.0101223 0.85588 -0.478631 0.195915 
0.0154858 -0.0294993 0.0588819 -0.403412 0.911068 0.0849337 
0.0107718 0.0381513 0.114486 -0.161234 -0.893369 0.4194 
-0.0179656 0.0286554 0.0867915 0.515926 -0.84923 0.11238 
-0.0286835 0.0220617 0.103388 0.7012 -0.672105 0.237892 
-0.00265124 0.0228631 0.000532422 0.0132655 -0.389752 0.920824 
-0.0172627 -0.040957 0.113421 0.433248 0.801917 0.41137 
-0.0319693 0.0102975 0.0710723 0.971538 -0.219641 0.0887208 
-0.0253387 -0.0199901 0.0764339 0.832177 0.551293 0.0596401 
-0.0199824 -0.031541 0.09891 0.553878 0.80562 0.210225 
-0.0311075 0.00114859 0.0217825 0.99271 0.0476566 0.110706 
0.0243479 -0.00425611 -0.000156951 -0.450671 0.0513757 0.891211 
-0.0123579 0.0286504 0.0214727 0.37332 -0.925229 0.0677032 
0.0283558 -0.0153581 0.038647 -0.853106 0.521734 0.00204332 
0.0344259 -0.00969324 0.0829638 -0.96732 0.252783 0.0197982 
-0.00140503 0.0181276 0.00174242 -0.0381681 -0.0599934 0.997469 
-0.0154911 0.0281559 0.0489402 0.48016 -0.873644 0.0786898 
-0.0306419 -0.0218275 0.109287 0.786576 0.491303 0.374058 
0.0190739 -0.025135 0.0756776 -0.610498 0.786777 0.0909603 
-0.0248542 0.024029 0.0933161 0.680985 -0.731194 0.04018 
-0.0285836 -0.0142428 0.0746797 0.889711 0.455726 -0.0269804 
-0.0167802 0.0283803 0.0603104 0.533472 -0.845646 0.0170479 
0.0310323 -0.0171379 0.0823116 -0.85391 0.515907 0.0683851 
0.018076 -0.0325613 0.0990821 -0.390451 0.889235 0.238346 
-0.0201771 0.0212375 0.00490408 0.612411 -0.60889 0.504188 
0.0408692 0.00966537 0.109026 -0.867684 -0.265819 0.420078 
0.0145539 0.0423607 0.120209 -0.187954 -0.944958 0.26782 
0.00343032 0.031791 0.0432754 -0.126512 -0.988248 0.0857895 
-0.0195833 -0.0236944 0.0217158 0.623976 0.767783 0.145476 
-0.0312222 0.0085164 0.048926 0.968302 -0.243157 0.0571382 
0.0204207 -0.0202947 0.041754 -0.709351 0.704742 0.0126585 
-0.0290347 -0.0130702 0.0379127 0.895335 0.444003 0.0351577 
-0.0297034 -0.0130782 0.0435798 0.93449 0.353294 0.0437196 
0.0127259 0.0286106 0.0738294 -0.365166 -0.930613 0.0247834 
0.0256171 -0.0285602 0.109122 -0.525873 0.709575 0.469 
-0.00816604 0.0164667 0.00164753 -0.0435637 -0.0249152 0.99874 
-0.0297781 0.0334279 0.12067 0.626986 -0.71293 0.314037 
-0.0254501 -0.0252529 0.0873772 0.812433 0.55633 0.174499 
-0.0233579 -0.0206986 0.0268368 0.717039 0.689408 0.102823 
-0.00887746 0.0275497 0.039782 0.234896 -0.967464 0.0940096 
-0.029593 0.010384 0.02136 0.900603 -0.376238 0.217622 
0.034691 0.000674135 0.0715719 -0.996818 -0.0526453 0.0598507 
0.0215065 0.0282445 0.107763 -0.563284 -0.721483 0.402707 
0.0242476 0.026128 0.111502 -0.597443 -0.715014 0.363066 
-0.0355576 0.00931536 0.102972 0.866335 -0.44638 0.224072 
-0.00303855 -0.0193333 0.000371318 -0.0226298 0.178659 0.983651 
0.0255162 0.0172977 0.0165027 -0.8259 -0.539271 0.164549 
0.00252446 -0.0323456 0.0487385 -0.164357 0.984885 0.0546621 
-0.0400522 0.0131537 0.113929 0.897244 -0.223568 0.38075 
-0.0132896 -0.0282643 0.0271526 0.400304 0.9121 0.0884867 
-0.0376868 0.0187399 0.11464 0.734554 -0.492513 0.466756 
0.0294624 0.0287649 0.119922 -0.684934 -0.585853 0.433176 
-0.0358144 0.00412892 0.109123 0.911703 -0.143202 0.385085 
-0.00785276 -0.0367471 0.0984905 0.198188 0.943359 0.266074 
-0.0133899 0.0296036 0.0532679 0.38172 -0.923425 0.0397096 
-0.0294279 0.000799025 0.0622784 0.991391 -0.0734596 0.108385 
-0.0239792 0.0342582 0.115264 0.59635 -0.710169 0.374201 
-0.0280154 0.0143731 0.0269186 0.861092 -0.49603 0.111691 
0.00189027 -0.0369343 0.109613 -0.130535 0.907066 0.400239 
-0.0221606 -0.0344352 0.114573 0.549569 0.725162 0.414867 
0.0304687 -0.0311168 0.109903 -0.538264 0.658891 0.525485 
-0.0281458 0.0121001 0.068195 0.891423 -0.438809 0.113192 
0.0355936 0.00177827 0.0821642 -0.993018 -0.111553 0.0383518 
-0.00762915 -0.0278139 0.0108699 0.23254 0.948372 0.215673 
-0.0251405 0.00855976 0.0108691 0.879397 -0.388397 0.275336 
0.0297115 -0.0160573 0.0598148 -0.857899 0.49018 0.154057 
-0.0350444 0.0231775 0.123018 0.787407 -0.518865 0.33282 
0.00287609 0.0398931 0.120649 0.0197822 -0.922366 0.385811 
-0.0380819 -0.0216141 0.113968 0.770811 0.460262 0.440466 
-0.0156367 -0.0290493 0.048876 0.455328 0.883903 0.106731 
-0.0290592 -0.0176737 0.0652167 0.85046 0.522834 0.0579931 
-0.0208432 -0.0294371 0.0868357 0.601824 0.786115 0.140824 
-0.0303252 -0.0160953 0.0694711 0.880493 0.473519 0.0226273 
-0.0247627 0.0295966 0.114553 0.605905 -0.69588 0.385527 
-0.0143395 -0.0248585 0.0411654 0.512139 0.853739 0.0940381 
0.00381988 0.0305061 0.0158963 -0.11777 -0.985992 0.118108 
-0.0322224 -0.00361831 0.0436387 0.992778 0.0959168 0.0720483 
-0.0130811 -0.0337438 0.0875399 0.355709 0.924658 0.135937 
-0.0186596 0.0251128 0.0269228 0.544016 -0.835558 0.0767507 
-0.00269052 -0.0297211 0.0165321 0.0833783 0.978447 0.188916 
0.00833412 -0.0375603 0.102808 -0.213405 0.936174 0.279349 
0.023526 -0.0270837 0.087489 -0.648473 0.738072 0.186366 
0.00933612 -0.0318631 0.0566279 -0.355042 0.929393 0.100863 
-0.0295747 -0.0107372 0.0323758 0.935961 0.343862 0.0757393 
0.0305934 0.00747969 0.0214063 -0.969648 -0.219376 0.10797 
0.0299042 -0.0149632 0.0538312 -0.862709 0.481684 0.153992 
-0.00245798 -0.0447217 0.114709 -0.0468919 0.940533 0.336451 
0.0385402 0.0116096 0.114596 -0.848138 -0.264018 0.4593 
0.0379993 -0.00991744 0.104388 -0.957959 0.0495372 0.282596 
0.0480639 0.000928756 0.121875 -0.928268 -0.0859151 0.361853 
0.0131469 -0.0372421 0.104596 -0.24642 0.883015 0.399452 
-0.0242429 0.0369178 0.12013 0.55605 -0.796995 0.235813 
-0.0294 -0.0149174 0.0488064 0.902444 0.423591 0.0785241 
-0.0135583 0.0404169 0.118013 0.316934 -0.889746 0.328488 
-0.0438793 0.00761989 0.119433 0.941708 -0.18098 0.283607 
-0.0315897 0.0121391 0.0763766 0.897672 -0.437307 0.0542863 
0.0162848 0.0239996 0.00579024 -0.490897 -0.723352 0.485575 
0.0316776 0.0149062 0.0758516 -0.918769 -0.393548 0.031356 
0.0303718 -0.0158011 0.065309 -0.892049 0.446645 0.0689688 
0.00289115 -0.020458 -2.29148e-05 -0.0933802 0.291877 0.951886 
0.0248204 0.0226003 0.0597206 -0.741951 -0.6679 0.058466 
0.0105111 -0.0327587 0.0708299 -0.352493 0.928564 0.116266 
0.0108649 -0.0418765 0.10897 -0.2141 0.872493 0.439223 
0.0410814 0.01248 0.121852 -0.876925 -0.285239 0.386836 
0.00548489 0.0282427 0.00472391 -0.0989201 -0.795189 0.598239 
0.00319862 0.0170078 0.0018756 -0.00627226 -0.011503 0.999914 
-0.0341453 0.00650732 0.0930204 0.975683 -0.191179 0.10721 
-0.0353694 0.0242409 0.117814 0.719549 -0.561264 0.408941 
0.0200244 0.0291299 0.08783 -0.529048 -0.847911 0.0339772 
0.0289428 0.0159818 0.0487885 -0.869824 -0.493269 0.00957052 
0.00582529 0.0310768 0.0320501 -0.184207 -0.981125 0.058832 
-0.0295318 -0.0113883 0.0787411 0.925771 0.377087 0.0274549 
0.00414828 -0.0311661 0.0681784 -0.18358 0.973667 0.135173 
-0.0131834 -0.0199435 -0.000480321 0.24431 0.250937 0.936666 
-0.00245756 0.0275176 0.0016914 0.0288661 -0.617922 0.785709 
-0.0313243 -0.0083402 0.0443139 0.954768 0.297146 0.011074 
0.0153427 -0.0324958 0.0876118 -0.392946 0.914885 0.0926174 
-0.0113815 -0.0256572 0.00499915 0.318115 0.809033 0.494235 
0.021631 0.023796 0.0380086 -0.640075 -0.766646 0.0505791 
-0.0463099 -0.00357226 0.12208 0.988003 0.00726073 0.154266 
0.00899896 0.0234305 0.000434834 -0.114523 -0.41724 0.901551 
-0.0199827 -0.0307151 0.0926327 0.544101 0.830702 0.117852 
-0.019383 0.028539 0.0930022 0.513917 -0.856446 0.0488919 
-0.00749063 0.0300092 0.0159198 0.270631 -0.959108 0.0828943 
-0.0242689 0.014076 0.0214767 0.837726 -0.50405 0.210116 
0.00374033 -0.0158024 0.00134743 0.0205195 -0.00633776 0.999769 
0.0160083 -0.0260496 0.0555103 -0.45801 0.88626 0.0690607 
-0.0161755 0.0404797 0.124399 0.299619 -0.916877 0.263752 
0.0148606 0.0287391 0.0429712 -0.414519 -0.907646 0.0659781 
-0.0140154 0.0276735 0.0164622 0.48924 -0.867966 0.0853174 
-0.0302617 0.0288742 0.115 0.620002 -0.684817 0.382914 
-0.0163227 0.0284549 0.0657203 0.521127 -0.853478 -0.00100274 
-0.0299243 0.0104323 0.0331302 0.931986 -0.351714 0.0877468 
0.014033 -0.0257538 0.0487447 -0.535934 0.842001 0.0617178 
0.0289846 0.000253374 0.00619466 -0.869317 -0.0702497 0.489236 
-0.0295535 0.0130444 0.100815 0.853126 -0.51001 0.109844 
-0.0326949 0.000121784 0.0488298 0.998646 -0.00242343 0.0519577 
0.00372091 -0.0398355 0.104947 -0.133031 0.919771 0.369221 
0.00230886 -0.041672 0.11635 -0.0448867 0.927607 0.37085 
-0.0406908 -0.0178314 0.12409 0.886772 0.390697 0.246963 
-0.0105967 -0.0248053 0.0169379 0.423544 0.893685 0.148114 
0.0293723 0.0315749 0.114813 -0.608244 -0.646611 0.460363 
-0.0159007 -0.0280604 0.0711487 0.511566 0.842306 0.16977 
-0.0171013 -0.0258551 0.061275 0.515833 0.855476 -0.0455771 
0.0317759 -0.0169851 0.0869146 -0.865326 0.495647 0.0744684 
0.00802031 0.0442211 0.120675 -0.153314 -0.958467 0.240489 
0.0132814 -0.0316711 0.100272 -0.397616 0.901723 0.169699 
-0.0329964 -0.00970026 0.0756719 0.961512 0.267028 0.0647362 
0.035045 0.00889982 0.092871 -0.953082 -0.285976 0.0992582 
-0.0222101 0.0224284 0.0293632 0.692852 -0.712752 0.109272 
-0.00305121 0.0419096 0.114694 0.0900266 -0.91317 0.397513 
0.014256 0.0304335 0.0664094 -0.397071 -0.916727 0.0441112 
0.0150675 0.028949 0.0484059 -0.436906 -0.895837 0.0811678 
0.0106973 -0.028532 0.0608837 -0.344947 0.9368 0.0584523 
-0.0284474 -0.020832 0.0799401 0.834918 0.541123 0.100483 
0.0284813 0.0199064 0.0767456 -0.774594 -0.632457 -0.00161727 
-0.0386139 0.0121951 0.108965 0.840877 -0.277453 0.4647 
0.032422 -1.8465e-05 0.0378584 -0.999295 -0.00858385 0.0365451 
-0.0148676 -0.0228405 0.020668 0.569478 0.805882 0.162015 
0.0287764 0.00774006 0.010819 -0.913171 -0.3097 0.264961 
0.0325741 -0.0114384 0.0689145 -0.935551 0.342349 0.0868378 
0.0103273 -0.0314647 0.0881595 -0.279237 0.955159 0.0984821 
0.0198351 0.0264547 0.0542371 -0.60778 -0.793233 0.0372183 
-0.0133889 -0.0332174 0.0822498 0.379475 0.909836 0.167924 
-0.032273 0.0111959 0.0817086 0.942773 -0.33237 0.0266316 
-0.023713 -0.020919 0.0703489 0.680731 0.729858 0.0625534 
0.0430013 -0.0223545 0.120866 -0.878025 0.388335 0.279765 
-0.00244895 0.0311872 0.081969 0.13472 -0.990781 0.0142859 
0.0206598 -0.0250189 0.0483472 -0.616309 0.785089 0.0616361 
-0.0119896 0.0336183 0.103226 0.395394 -0.88035 0.262006 
0.0386067 0.00272671 0.104221 -0.921438 -0.189015 0.33945 
0.0302395 0.0342543 0.120632 -0.575517 -0.71824 0.391039 
-0.0269813 -0.0148993 0.0159903 0.853733 0.511306 0.0985168 
0.0069261 0.0334249 0.0761685 -0.148876 -0.988838 0.00591246 
-0.0227069 0.0202975 0.0765608 0.696679 -0.713742 0.0721841 
-0.00300225 0.00457253 0.00272777 -0.0270329 0.0166092 0.999497 
0.0331359 -0.0125607 0.10412 -0.92948 0.146132 0.338691 
0.0139907 -0.0281976 0.0378406 -0.429506 0.902315 0.0367676 
0.0361983 -0.0296296 0.118349 -0.69123 0.62052 0.370346 
0.0303138 0.0140727 0.0546783 -0.920549 -0.390425 0.0125684 
-0.0288841 0.00116376 0.0050465 0.837679 -0.0112702 0.546047 
0.0105301 0.0416229 0.117732 -0.170467 -0.946379 0.274422 
-0.0118357 0.028389 0.0773657 0.455472 -0.890233 0.0055457 
-0.00806317 0.0266954 0.0192482 0.298131 -0.953205 0.0501864 
-0.0228386 0.0131311 0.0127502 0.882077 -0.457935 0.110616 
-0.027302 0.0171312 0.0487631 0.851655 -0.523876 -0.0154454 
-0.0279962 -0.00662917 0.00488969 0.845205 0.248892 0.47295 
0.00890606 0.0333619 0.082709 -0.206153 -0.977468 0.0453625 
-0.02736 0.0212274 0.0960881 0.776511 -0.629942 0.0142605 
0.0361112 -0.000388085 0.0871026 -0.999257 0.0142959 0.0357924 
0.0292022 -0.0227926 0.0983373 -0.814984 0.542458 0.203814 
-0.024823 -0.0257445 0.105381 0.747409 0.59886 0.287657 
0.00391047 0.0315992 0.0384798 -0.0831427 -0.995553 0.0442839 
-0.0296292 0.0244121 0.112873 0.664803 -0.575058 0.476808 
0.0220225 0.0238089 0.04341 -0.646533 -0.75967 0.0699721 
-0.0055012 -0.0263051 0.00145221 -0.00445848 0.638329 0.76975 
0.0258014 0.0243365 0.0900427 -0.709212 -0.702106 0.0637706 
0.020651 -0.0274405 0.0709115 -0.60675 0.793621 0.0449339 
0.032741 0.0258661 0.109678 -0.613047 -0.642383 0.45991 
-0.0229377 -0.0246511 0.0537687 0.719474 0.689572 0.0827464 
-0.0330653 -0.0236864 0.114729 0.752868 0.478099 0.452339 
0.00109732 -0.0365402 0.092631 -0.108891 0.978968 0.172524 
0.0218274 -0.032156 0.103351 -0.492269 0.805489 0.329938 
0.0258532 0.0189096 0.0357283 -0.823177 -0.564041 0.0651013 
0.0287507 0.0250051 0.112028 -0.640966 -0.61283 0.46217 
-0.00146079 0.0317882 0.037481 0.00434153 -0.999184 0.0401499 
-0.0249228 0.0314904 0.10923 0.601328 -0.646593 0.469384 
0.00216143 -0.0251215 -0.000560824 -0.0607076 0.4876 0.870954 
-0.00124921 0.0274356 0.0214977 0.0355005 -0.997852 0.0550481 
-0.00688558 -0.0347518 0.104306 0.187053 0.910006 0.37 
-0.0304601 0.00767476 0.025389 0.962882 -0.231642 0.138564 
-0.00802036 0.0392449 0.109109 0.168283 -0.780309 0.602328 
0.00494808 -0.0301974 0.0574092 -0.222072 0.972895 0.0645009 
0.0225732 -0.0212653 0.0281396 -0.724735 0.687373 0.0477168 
-0.00554708 0.0336552 0.108922 0.23222 -0.879047 0.416353 
-0.0277699 -0.0378443 0.119705 0.633788 0.673635 0.38017 
0.0140758 0.0283932 0.0325225 -0.36612 -0.929813 0.0374576 
0.0322009 -0.000924058 0.0329529 -0.998602 0.0420126 0.0320756 
-0.0347301 0.0230187 0.113401 0.718784 -0.561375 0.410131 
0.0274904 -0.0185488 0.0519435 -0.79007 0.606672 0.0879744 
-0.0321317 0.00540118 0.0523448 0.984541 -0.175111 -0.00397011 
-0.0152536 -0.0238602 0.0366279 0.510333 0.857748 0.061879 
0.0253144 0.022596 0.0663348 -0.739324 -0.670273 0.0643027 
-0.00142536 0.0421351 0.124186 0.0748058 -0.96597 0.247602 
0.0201648 0.0245792 0.0330338 -0.592205 -0.804469 0.0460791 
-0.0252945 0.0206627 0.0554636 0.80697 -0.590111 0.0238346 
-0.0132196 0.0266062 0.0109324 0.470348 -0.867826 0.160159 
0.0313646 0.000110506 0.0193171 -0.994297 0.0103963 0.10614 
0.0312273 0.0166692 0.0834159 -0.905052 -0.423561 0.0384428 
-0.0283582 -0.0130376 0.027246 0.913476 0.398721 0.0811341 
0.00792177 -0.0325877 0.0610268 -0.246381 0.961312 0.123188 
0.0023121 0.0331037 0.0658192 -0.0167843 -0.997384 0.0703122 
-0.0241179 -0.0159569 0.00728209 0.759692 0.539116 0.363624 
-0.0399409 -0.0130909 0.109625 0.818644 0.226453 0.52777 
0.036155 0.0039927 0.09276 -0.979046 -0.160657 0.125133 
-0.0255604 -0.0266333 0.097659 0.759598 0.634928 0.140983 
0.0412394 0.00495861 0.118376 -0.842678 -0.240451 0.481743 
-0.0279016 -0.025701 0.101786 0.780001 0.59158 0.204038 
0.0239777 -0.0273953 0.0926268 -0.707348 0.690442 0.151488 
-0.0182805 0.0354353 0.118899 0.484179 -0.802165 0.349431 
-0.0134674 0.0381102 0.109326 0.281961 -0.842303 0.459373 
0.0343217 0.0183341 0.105459 -0.772845 -0.464933 0.431913 
0.0147775 -0.0233541 0.00554725 -0.470283 0.750669 0.464037 
-0.00182858 0.0296329 0.0109219 0.0682842 -0.976793 0.203011 
0.0457398 0.0036836 0.118697 -0.899235 -0.144166 0.413029 
-0.0298742 -0.00821707 0.0170126 0.943528 0.311314 0.113309 
0.0315027 0.0120946 0.0592339 -0.939413 -0.33637 0.0660159 
0.0273124 0.0260691 0.103791 -0.702107 -0.631193 0.329608 
0.00305005 -0.0349648 0.0763387 -0.0567272 0.989899 0.129929 
0.0230614 0.0270112 0.0930676 -0.571488 -0.81588 0.0879847 
0.0259718 -0.0337881 0.108507 -0.486075 0.743491 0.459295 
0.0203155 0.0265203 0.0593593 -0.606967 -0.791228 0.0744942 
0.0233535 -0.0266074 0.0820438 -0.663426 0.73728 0.127613 
0.000772108 0.0390721 0.114398 0.00208865 -0.869183 0.494487 
0.0176936 0.0313262 0.109215 -0.415081 -0.831275 0.369715 
-0.00772099 0.00144067 0.00260586 -0.0735154 -0.00735716 0.997267 
0.0086308 -0.031238 0.0489605 -0.328425 0.943488 0.0443489 
0.017565 0.0293395 0.0694965 -0.518107 -0.854192 0.0438262 
0.00292532 -0.0307491 0.0327855 -0.131638 0.990237 0.0458446 
0.0196182 0.0274087 0.0644274 -0.574952 -0.816323 0.0551982 
-0.0143398 0.0276811 0.0273362 0.410946 -0.910456 0.0468314 
0.0213675 0.0244875 0.0878316 -0.639699 -0.768594 0.00697264 
-0.031191 0.00760165 0.0442916 0.973359 -0.224499 0.0466095 
-0.0231798 0.0368707 0.124627 0.556666 -0.781599 0.281472 
0.0294669 -0.02563 0.103655 -0.619568 0.671349 0.406726 
0.0195924 -0.0301783 0.0875616 -0.568848 0.809754 0.143907 
-0.00832695 0.030828 0.0452 0.276584 -0.959357 0.0560007 
0.02994 -0.00167515 0.0105324 -0.964269 0.0802251 0.252485 
0.0149308 0.0284383 0.0895771 -0.454708 -0.889458 0.0458768 
0.0339105 0.00075702 0.0603161 -0.994972 -0.0705791 0.0710553 
0.0312935 -0.0045156 0.027254 -0.978352 0.201299 0.0480172 
0.0313193 0.00912303 0.0957559 -0.929946 -0.363832 0.0531622 
0.029992 0.0104322 0.0269837 -0.926331 -0.372136 0.0585242 
-0.0248372 -0.0255248 0.0821144 0.718337 0.67711 0.159731 
0.0329763 -6.63074e-05 0.0437881 -0.997868 0.0287331 0.0585942 
-0.0168691 -0.023637 0.0101525 0.580035 0.796408 0.171156 
0.0312433 -0.00937712 0.0410618 -0.922258 0.38617 0.0176714 
0.0103748 -0.0283518 0.0216371 -0.300068 0.945321 0.127775 
0.00057822 0.032766 0.0980874 0.0403437 -0.998123 0.046079 
-0.0111794 0.0253593 0.00150066 0.184415 -0.535117 0.824403 
0.0312758 0.0112307 0.0506115 -0.934965 -0.352866 -0.0364219 
-0.0215712 0.0247226 0.0599136 0.666828 -0.744244 0.0379809 
0.020782 -0.0432309 0.120114 -0.390248 0.863228 0.320227 
-0.0205669 -0.0246329 0.0382771 0.596654 0.798697 0.0780247 
-0.0380198 -0.00985176 0.106242 0.812993 0.2222 0.53821 
-0.0201789 0.0352399 0.109715 0.424644 -0.728168 0.538005 
0.00616735 -0.0441153 0.114185 -0.163254 0.911993 0.376321 
0.0124742 -0.0294782 0.0461048 -0.453877 0.890309 0.0366902 
-0.0293374 -0.0342575 0.116984 0.636514 0.670484 0.381183 
0.0431817 0.0161555 0.119894 -0.865562 -0.350193 0.358004 
0.025585 0.018104 0.0217768 -0.800686 -0.593167 0.083992 
0.00823803 0.00656099 0.00251373 0.0770122 0.0361123 0.996376 
-0.00319604 -0.0373094 0.0988656 0.0585213 0.96472 0.256691 
0.0344892 0.0295107 0.11988 -0.672238 -0.639399 0.373183 
0.0424901 0.0196385 0.122932 -0.851934 -0.446017 0.274367 
-0.00172038 -0.0126655 0.00194983 -0.0144319 -0.142543 0.989683 
-0.0283395 0.0176374 0.0715678 0.802531 -0.592592 0.0691275 
0.0247916 -0.0233644 0.064986 -0.618255 0.784684 0.0450773 
-0.0337354 -0.008452 0.0809711 0.956376 0.29117 0.0237759 
-0.031356 -0.0313324 0.123813 0.701892 0.601417 0.381635 
0.0131145 -0.0457741 0.119758 -0.191519 0.907012 0.375033 
0.0290701 0.0204217 0.0873469 -0.817678 -0.575305 -0.0206676 
0.0131024 -0.0337455 0.0919178 -0.368572 0.91724 0.151078 
0.0278827 0.0184209 0.0546069 -0.842773 -0.536337 0.0455686 
-0.0097624 -0.0321209 0.054141 0.28719 0.957161 0.0369424 
-0.00805268 -0.0309988 0.0381042 0.271424 0.959351 0.0772939 
-0.0299213 -0.0195088 0.0873421 0.867605 0.465888 0.173807 
0.0129989 0.0305269 0.0550537 -0.405506 -0.911057 0.0744339 
-0.0308293 -0.0169543 0.0814288 0.885019 0.456193 0.092896 
0.00871797 0.0282043 0.0102673 -0.294885 -0.929904 0.219821 
-0.00667329 0.0302648 0.026327 0.208249 -0.976525 0.0550565 
0.0238235 -0.0339224 0.115152 -0.408572 0.804265 0.43154 
-0.0197831 -0.0234152 0.0162928 0.620132 0.773176 0.132798 
-0.0326401 -0.00965638 0.103485 0.896182 0.219789 0.385423 
0.0304167 0.012379 0.0459478 -0.919359 -0.390907 0.0443988 
0.0331302 0.000838941 0.0491213 -0.997684 -0.0253975 0.0631014 
-0.0160559 0.0349372 0.10711 0.357773 -0.819289 0.448068 
0.0334724 0.00079975 0.0547559 -0.995731 -0.0353108 0.0852875 
0.024442 -0.0245465 0.073823 -0.677145 0.735304 0.0283318 
-0.0220383 -0.0264763 0.0656851 0.655385 0.755269 -0.00621996 
0.0201506 0.021502 0.0105176 -0.693895 -0.650965 0.307822 
-0.00761356 -0.0290396 0.0171698 0.213681 0.960034 0.180764 
0.0101246 0.0324126 0.071114 -0.236136 -0.971076 0.0353755 
-0.0127126 0.0286953 0.0328131 0.386365 -0.921969 0.0263684 
0.0366188 -0.0108409 0.110156 -0.903423 0.0937063 0.418385 
0.0127001 -0.0345063 0.0965861 -0.313621 0.933123 0.175852 
-0.00244395 -0.038689 0.103318 -0.100803 0.927212 0.360716 
0.014481 -0.0262952 0.0170821 -0.41948 0.896821 0.140528 
-0.00273405 -0.0431938 0.109422 -0.0414043 0.902299 0.429118 
0.0261083 0.0160431 0.060922 -0.874604 -0.480867 0.0619206 
-0.00199128 0.0328924 0.0607672 0.101395 -0.99307 0.0594178 
0.0324574 -0.0269649 0.107827 -0.64968 0.581173 0.490055 
0.0324196 -0.00951042 0.0596914 -0.943679 0.316205 0.0973875 
0.0354849 -0.00515519 0.10601 -0.916584 0.10956 0.38454 
-0.0180096 0.0248426 0.0755758 0.566788 -0.823046 0.0366788 
0.0376988 0.0125937 0.10646 -0.793073 -0.416146 0.444813 
0.0332001 0.0117407 0.105041 -0.827978 -0.352243 0.436322 
-0.0041893 -0.035368 0.081672 0.122445 0.984109 0.128592 
0.0196542 0.0261878 0.0487707 -0.581078 -0.810131 0.0776988 
-0.0247074 0.0103533 0.0161688 0.900274 -0.405491 0.158378 
-0.013105 0.0321423 0.0985187 0.465718 -0.879845 0.0947628 
-0.00794613 0.0333531 0.0880329 0.229772 -0.968486 0.096121 
-0.000655336 0.0410181 0.110442 0.0589622 -0.832011 0.551617 
-0.0230846 0.0203371 0.0711922 0.743794 -0.667228 0.0397257 
0.0118282 0.0291013 0.028016 -0.362015 -0.930598 0.054147 
-0.0440584 -0.0158327 0.121066 0.896758 0.379637 0.22738 
-0.0315642 -0.00454854 0.0379834 0.986458 0.162617 0.0213683 
0.0391557 0.0235974 0.120025 -0.800176 -0.510525 0.314772 
0.00322532 0.0311957 0.0816894 -0.0793669 -0.994309 0.071061 
-0.0311857 -0.0111998 0.0522806 0.941362 0.317866 0.113132 
0.0370858 0.0228859 0.115258 -0.760299 -0.525568 0.381737 
0.0242091 -0.0165016 0.0107381 -0.753755 0.590972 0.287411 
0.0185603 -0.0312068 0.0929307 -0.459586 0.885385 0.0698092 
0.0135318 -0.0382645 0.112416 -0.260725 0.854072 0.450094 
-0.0248332 -0.00473311 9.41413e-05 0.551278 0.104206 0.827789 
0.0310039 -0.0161195 0.0769643 -0.851999 0.520538 0.0560193 
0.0333469 0.0276935 0.115436 -0.689903 -0.606414 0.395343 
-0.0340517 -0.00847281 0.0869932 0.966808 0.249645 0.0543938 
0.00181404 -0.0352182 0.08197 -0.0786737 0.991485 0.103774 
0.0331439 0.0164902 0.101 -0.869264 -0.396692 0.294984 
-0.00631503 -0.0145443 0.00143995 0.00661489 -0.0436127 0.999027 
-0.0407125 0.0168648 0.119445 0.900903 -0.383901 0.202469 
0.0166563 -0.044409 0.122841 -0.375218 0.863762 0.336344 
-0.0244528 0.0267796 0.103628 0.722005 -0.636577 0.27107 
-0.00774847 -0.0333926 0.0659636 0.247746 0.968673 0.0171527 
0.00506225 0.0421327 0.116856 -0.112168 -0.938525 0.326481 
-0.0267263 0.0168391 0.0329433 0.831587 -0.551665 0.0642502 
0.0173775 0.00721327 0.00135441 -0.0509428 -0.040968 0.997861 
-0.00693861 -0.0309006 0.0778871 0.235761 0.960419 0.148365 
0.0231574 0.000470855 -4.87981e-05 -0.395872 -0.0996394 0.912884 
-0.0430645 -0.00743728 0.123914 0.972196 0.0753438 0.221718 
0.0321244 -0.0210111 0.102154 -0.743338 0.525787 0.413517 
-0.0188326 0.0158755 0.000212218 0.371629 -0.256695 0.892188 
-0.0326951 -0.004597 0.0543903 0.987257 0.155965 0.0315903 
-0.0188654 0.0250862 0.0335104 0.572452 -0.819097 0.0371422 
-0.0206759 -0.0206991 0.0104347 0.640954 0.75575 0.134235 
0.0244878 0.021755 0.0481398 -0.74726 -0.662949 0.0458376 
0.025687 0.0372514 0.120238 -0.535566 -0.759872 0.36846 
0.0156075 0.0264702 0.0151475 -0.485668 -0.866435 0.115831 
-0.00833834 0.0337419 0.0976909 0.272353 -0.954538 0.121165 
0.022978 -0.0215219 0.0827099 -0.691404 0.709968 0.133814 
0.0265203 -0.037773 0.117629 -0.451753 0.807041 0.380269 
-0.02609 -0.0120956 0.00544939 0.805231 0.366879 0.465837 
0.00975831 -0.0274055 0.012467 -0.264817 0.944032 0.196662 
0.0218757 0.0188051 0.00645276 -0.655745 -0.536127 0.53157 
0.028991 0.0141592 0.0381577 -0.879418 -0.470991 0.0692212 
-0.0171033 0.026836 0.0437008 0.512189 -0.855368 0.0775099 
0.0357414 0.00431083 0.0874723 -0.984216 -0.172543 0.0393315 
-0.0101202 0.0312645 0.0598751 0.318068 -0.946704 0.0508354 
-0.0126573 0.0290781 0.103991 0.395111 -0.882021 0.256761 
0.0292803 -0.0179983 0.0983466 -0.831892 0.518005 0.199062 
-0.00551031 -0.0308868 0.0691593 0.166321 0.983985 0.0641197 
-0.00745194 -0.0360294 0.0938212 0.212551 0.966396 0.14457 
0.0182435 0.0257302 0.0275077 -0.567965 -0.821221 0.054875 
-0.0141438 0.0284234 0.0927108 0.484353 -0.873583 0.0474824 
0.0274619 0.0204962 0.0720764 -0.758506 -0.646434 0.0824156 
0.0143032 0.00355599 0.0020054 0.0805003 -0.055727 0.995196 
-0.0233385 0.0218705 0.0433972 0.724664 -0.687552 0.0461965 
-0.00845234 -0.0351846 0.0879113 0.220078 0.967428 0.125094 
-0.0144821 -0.0304079 0.0553512 0.388265 0.921535 -0.00482188 
0.00201242 0.0338469 0.0768015 -0.0672598 -0.997731 -0.00313603 
0.0339681 0.00726589 0.0710215 -0.974605 -0.207885 0.0832409 
-0.0284776 0.0287558 0.120157 0.591249 -0.734352 0.333395 
0.0266198 0.0124086 0.00905036 -0.859732 -0.393741 0.325315 
-0.0329382 -0.0130438 0.0868842 0.936787 0.332182 0.109936 
-0.00716796 -0.0406855 0.106517 0.119637 0.874479 0.470078 
0.0303253 0.0103896 0.0332346 -0.932502 -0.357063 0.0542801 
-0.00842975 -0.0298346 0.0626782 0.271968 0.962158 0.0168928 
0.0216011 0.022702 0.0209562 -0.64962 -0.755331 0.0864256 
-0.0225393 0.0223652 0.0380933 0.702435 -0.71154 0.017213 
0.0196818 -0.0230733 0.0537903 -0.547525 0.828316 0.118779 
-0.0155092 -0.0226996 0.00253301 0.350201 0.553104 0.755933 
-0.0130683 -0.031382 0.0612134 0.375699 0.925725 0.0433915 
-0.0265379 -0.0167218 0.0300167 0.853036 0.507279 0.122464 
0.0259156 0.00881779 0.00135997 -0.526451 -0.260523 0.809307 
0.0337353 0.00636254 0.0656781 -0.960585 -0.256696 0.106696 
-0.0244066 -0.00974293 0.000625681 0.502889 0.19502 0.842063 
0.00726337 0.032469 0.0601988 -0.142857 -0.989413 0.0255777 
0.0184664 -0.0238476 0.0155097 -0.540508 0.828736 0.145078 
-0.0386859 -0.0260194 0.119793 0.781079 0.515121 0.352939 
-0.0340698 -0.00372475 0.0758006 0.985875 0.159454 0.0512419 
-0.0236418 -0.0148806 0.00267178 0.613908 0.488446 0.62011 
0.025016 0.0243931 0.0823109 -0.67178 -0.740521 -0.0184738 
-0.0284883 -0.0178902 0.0597848 0.86297 0.497851 0.0861779 
0.00713353 -0.0344832 0.081651 -0.234781 0.969008 0.0768211 
0.0104526 0.0308245 0.0480374 -0.294454 -0.952659 0.0757527 
-0.0210586 -0.0247766 0.0762139 0.644616 0.751891 0.138311 
-0.0427178 -0.00552196 0.114036 0.947801 -0.0405722 0.316271 
-0.0158116 -0.0263389 0.0236267 0.514063 0.853696 0.0833284 
0.0347672 -0.00591995 0.0766397 -0.992269 0.103072 0.0691301 
-0.00133186 0.0441301 0.119918 0.0364642 -0.944249 0.327207 
-0.0120728 -0.0372894 0.103532 0.340888 0.855488 0.389789 
0.011954 -0.0280694 0.0269393 -0.389968 0.917092 0.0828647 
-0.0321688 0.00755314 0.0596996 0.977065 -0.212148 0.0183796 
-0.0332976 8.5568e-05 0.0597348 0.995156 -0.0654039 0.0733999 
0.0270361 0.0179647 0.0429483 -0.823306 -0.561493 0.0830211 
-0.0329307 -0.00767655 0.0657565 0.975419 0.202844 0.0860946 
-0.0379096 0.0178962 0.123223 0.86087 -0.414267 0.295441 
-0.0326572 -0.0198585 0.103704 0.815238 0.438034 0.378832 
0.0280622 -0.00345075 0.00267554 -0.623246 0.0950976 0.776222 
0.0404007 -0.0175328 0.111268 -0.854732 0.250097 0.454847 
-0.0288347 0.0055186 0.0090263 0.931597 -0.237558 0.275124 
-0.00303087 0.0325038 0.0548507 0.134371 -0.989844 0.0464058 
0.0186378 0.0290009 0.0740906 -0.531252 -0.844792 0.0640156 
0.0339046 -0.0228319 0.106362 -0.724487 0.447792 0.524023 
-0.0285936 -0.00919896 0.0119303 0.931893 0.321265 0.168418 
-0.0270916 0.0104862 0.00495002 0.848206 -0.352157 0.395642 
0.00825109 -0.0298132 0.0324665 -0.272148 0.960715 0.0544331 
0.0335703 -0.0105731 0.0768187 -0.951213 0.301466 0.0656639 
-0.0198354 0.0251831 0.0480661 0.587717 -0.8056 0.0748131 
0.0220744 -0.0210836 0.0170737 -0.668066 0.731262 0.137633 
0.00191684 0.0325969 0.0542171 -0.00266938 -0.999302 0.0372613 
-0.035213 -0.00850077 0.0995897 0.921396 0.266105 0.283228 
0.0133369 0.0264546 0.0106369 -0.430711 -0.855559 0.287239 
-0.0031063 -0.00058316 0.00263346 -0.0189123 -0.0275871 0.99944 
0.0160651 0.0189859 0.000172082 -0.375677 -0.32213 0.868964 
-0.0212222 0.0254866 0.0652113 0.64065 -0.767792 -0.00801519 
-0.0296094 -0.0156867 0.101297 0.893541 0.396236 0.211143 
0.0118851 -0.0245353 0.00169143 -0.227623 0.688271 0.688818 
-0.0270236 -0.03294 0.108987 0.601433 0.656856 0.454773 
0.016203 0.0267663 0.0215884 -0.496197 -0.863472 0.0905755 
-0.0224749 -0.02559 0.0602772 0.641857 0.766706 -0.013463 
0.0163819 0.0303013 0.0781079 -0.471029 -0.881999 -0.0144482 
-0.00208113 0.0310226 0.0169247 0.0742785 -0.992066 0.101431 
-0.0316589 -0.0121584 0.0655769 0.935686 0.351618 0.0292709 
0.0298269 -0.00985933 0.0273049 -0.933796 0.353929 0.0525354 
0.00251887 -0.0242856 0.0122845 -0.12372 0.960704 0.248476 
-0.0396522 0.0221914 0.121584 0.818686 -0.493944 0.292869 
-0.0313448 0.00300945 0.0261969 0.985372 -0.126851 0.113802 
-0.00932065 -0.0240009 -0.000100542 0.221133 0.552832 0.803416 
-0.00204537 -0.0333143 0.0559848 -0.00864446 0.997859 0.0648217 
0.0284594 -0.0129517 0.0236635 -0.880732 0.470131 0.0573446 
-0.0270178 0.0213023 0.0902216 0.764806 -0.644244 0.00461264 
0.00782814 -0.0314948 0.0767427 -0.347941 0.933279 0.0890367 
0.03877 -0.00216575 0.103836 -0.928792 0.0626398 0.365269 
0.00587016 -0.0342519 0.0717669 -0.203142 0.968517 0.143903 
0.024317 0.024062 0.0717162 -0.643706 -0.764526 0.0338146 
0.00623789 -0.0276407 0.00935953 -0.200205 0.932369 0.301007 
-0.0329211 0.0111631 0.0919916 0.917499 -0.373682 0.136225 
0.0313516 -0.0190328 0.0942126 -0.871371 0.461755 0.165819 
0.0384585 0.0167037 0.109209 -0.806985 -0.34447 0.479703 
-0.0289897 -0.0142946 0.0893161 0.924316 0.369263 0.096363 
-0.0269948 0.0203531 0.0815023 0.807338 -0.58158 0.0998483 
0.0235546 0.0401589 0.12324 -0.455623 -0.852412 0.256519 
-0.0296829 0.00863219 0.0168149 0.902818 -0.39239 0.175926 
0.0406301 0.0162072 0.115155 -0.836486 -0.33674 0.432316 
-0.0184422 0.0295561 0.0976139 0.574108 -0.815901 0.0685926 
-0.0216596 0.0212535 0.0131734 0.800231 -0.593548 0.0856255 
0.0074839 0.0334221 0.10821 -0.169035 -0.901471 0.398469 
0.00713327 -0.0283547 0.0451697 -0.302388 0.952148 0.0444509 
-0.0300044 -0.0208798 0.0986745 0.885401 0.427466 0.182588 
0.033733 -0.00489299 0.0656223 -0.989166 0.1202 0.0842749 
0.037384 0.000392414 0.109752 -0.924282 0.0134922 0.381471 
-0.034861 0.000930481 0.0875102 0.995751 -0.0888511 0.0242037 
0.0316353 0.0131113 0.065827 -0.932786 -0.347929 0.0941048 
0.0277013 -0.0237926 0.0926234 -0.760068 0.638603 0.120345 
0.0330091 0.00644158 0.0547751 -0.976059 -0.214947 0.0332558 
-0.0306447 0.00304118 0.0155018 0.98177 -0.142364 0.125939 
0.0415012 -0.0158021 0.122831 -0.899395 0.242781 0.363519 
-0.0249118 0.0188546 0.0209123 0.784739 -0.599718 0.156599 
0.0116442 -0.0123014 0.00127077 0.0122741 0.0037596 0.999918 
-0.0142408 0.0117676 0.00157092 0.0405704 0.0210182 0.998956 
0.0293216 0.0297245 0.110161 -0.599796 -0.661432 0.45028 
0.0146403 0.0367934 0.107701 -0.335224 -0.856947 0.391493 
-0.0337469 -0.0189275 0.111493 0.763932 0.471848 0.440189 
0.0069183 -0.0351511 0.0877334 -0.251168 0.959901 0.124515 
0.00291735 0.0335999 0.0708157 -0.0492865 -0.998783 -0.00186504 
0.0135995 0.0327979 0.0983354 -0.306458 -0.938888 0.156758 
-0.0240039 0.0202034 0.102924 0.737034 -0.647862 0.1925 
-0.0189165 0.0257316 0.103653 0.58995 -0.757122 0.28058 
0.0296999 0.0208943 0.109371 -0.774581 -0.45699 0.437247 
0.00151981 0.0312374 0.0213553 -0.0728287 -0.996753 0.0343417 
-0.0329456 -0.00461924 0.0603977 0.999001 0.0217445 0.0390502 
-0.00247758 -0.0341839 0.0656361 0.015519 0.99217 0.123929 
0.0313649 0.00451069 0.0757894 -0.986435 -0.12506 0.10633 
-0.0285046 -0.0352389 0.123584 0.654769 0.686899 0.315353 
-0.0263733 0.00469659 0.0135737 0.942609 -0.303255 0.139733 
-0.0126562 -0.040242 0.107967 0.363348 0.820448 0.441411 
-0.0229827 0.0194475 0.0612907 0.795141 -0.606337 0.0103699 
-0.00339063 -0.0305164 0.0271956 0.100627 0.993832 0.046618 
-0.00973472 0.0315458 0.0652157 0.296378 -0.954727 0.0256117 
-0.025272 0.0213585 0.065141 0.787978 -0.615051 0.0283344 
0.0353235 -0.0051645 0.0821355 -0.995094 0.0748122 0.0647408 
0.0307661 0.00483628 0.016088 -0.951925 -0.24393 0.185301 
-0.0215159 0.0331561 0.122349 0.55605 -0.796995 0.235813 
-0.00751791 -0.0329249 0.0586465 0.140282 0.990071 0.00897524 
-0.0445024 -0.00830506 0.119249 0.954471 0.110515 0.277078 
0.0245791 0.0313451 0.115587 -0.495242 -0.737411 0.459303 
-0.00638166 0.042045 0.124122 0.154002 -0.941358 0.300215 
0.00187622 0.0346293 0.0904308 -0.0162443 -0.996001 0.0878491 
0.0110788 0.0268299 0.00612839 -0.308997 -0.771679 0.555907 
0.0278274 -0.0226709 0.0871094 -0.783004 0.61148 0.114003 
-0.0287655 -0.0275769 0.112509 0.703119 0.517524 0.48764 
0.0248283 0.0163069 0.0110184 -0.82078 -0.512582 0.25215 
-0.00238627 -0.0303625 0.0218223 0.0924697 0.981677 0.166615 
-0.0242132 -0.0218431 0.0451563 0.722165 0.685018 0.0960639 
-0.0334534 0.00287278 0.0657863 0.98574 -0.145297 0.084891 
-0.0416541 -0.0131118 0.12421 0.945178 0.304853 0.117059 
0.0332907 -0.0295109 0.11332 -0.665594 0.627142 0.404571 
-0.0309861 -0.00547578 0.032411 0.976023 0.211445 0.0516751 
-0.0392985 0.00467675 0.117306 0.937225 -0.0777634 0.339945 
0.02888 0.0124477 0.0208736 -0.906529 -0.410601 0.0980453 
-0.0298792 0.00563972 0.0642716 0.970384 -0.228853 0.0773342 
-0.0312379 0.00942697 0.0544653 0.958512 -0.284367 -0.0197398 
-0.0123285 -0.0346446 0.0932325 0.317436 0.941801 0.110664 
0.0441862 -0.00547819 0.114823 -0.876424 0.093652 0.472345 
0.0266911 0.0353612 0.124871 -0.543041 -0.757488 0.362379 
0.00541327 0.0412852 0.112179 -0.0374146 -0.875105 0.482484 
0.0233 0.00515671 -0.000188064 -0.399058 -0.208933 0.892804 
-0.0140359 0.0213501 0.000366616 0.286289 -0.400564 0.870395 
-0.0278768 0.0144245 0.0185023 0.86398 -0.44812 0.229623 
0.000528811 -0.0348306 0.0707031 -0.0254111 0.995738 0.0886559 
0.000293502 -0.0284875 0.010381 -0.00740092 0.968624 0.24842 
0.00660293 -0.0289241 0.0159699 -0.216961 0.96394 0.154103 
-0.0356347 0.000900411 0.0980912 0.989981 0.0423811 0.134692 
-0.0181445 0.0314463 0.104092 0.428976 -0.855234 0.290783 
-0.0264169 -0.0139503 0.0114477 0.847272 0.514807 0.130779 
0.0128889 -0.0301735 0.054099 -0.40742 0.908866 0.0892866 
-0.00870032 0.0309718 0.0498731 0.269207 -0.961823 0.0492342 
-0.0131572 -0.0286011 0.0324688 0.414211 0.907882 0.0646502 
0.0365729 -0.00137301 0.0933701 -0.991898 0.0613514 0.111244 
0.0115577 0.0251284 0.0253721 -0.314559 -0.947835 0.0515824 
-0.0260366 0.00765795 0.00128718 0.694686 -0.225772 0.682963 
0.00387685 0.0322192 0.0484486 -0.109854 -0.989337 0.0956303 
-0.00218242 0.0134583 0.00242435 -0.0223028 0.0964068 0.995092 
-0.00751156 -0.0473034 0.120312 0.134148 0.958954 0.249823 
0.0341629 0.00072386 0.0652926 -0.994923 -0.0782396 0.0633047 
0.0436207 -0.0101532 0.115557 -0.909813 0.205017 0.360845 
0.0310138 0.0100886 0.09047 -0.95865 -0.273352 0.0791802 
-0.00607852 0.0310247 0.0384228 0.210047 -0.975628 0.0634883 
0.0189799 0.0401893 0.119447 -0.385311 -0.859825 0.335017 
0.0360342 -0.00604267 0.0927075 -0.988544 0.134781 0.067931 
0.0381168 0.0209324 0.123919 -0.799373 -0.511473 0.315276 
0.0452217 -0.0154667 0.120056 -0.899395 0.242781 0.363519 
0.0310336 -0.00377083 0.0219596 -0.986623 0.125941 0.103507 
0.0139204 0.0318806 0.0823692 -0.355078 -0.934311 0.0313516 
0.00852122 0.0178136 0.00126991 -0.00446832 -0.0694666 0.997574 
-0.0233246 -0.0278932 0.0908644 0.640476 0.752179 0.154976 
-0.00806501 -0.0340149 0.0719564 0.255534 0.960644 0.108927 
0.0430103 -0.0101856 0.125602 -0.921234 0.249208 0.298703 
0.0203583 -0.024991 0.0430518 -0.601655 0.798728 0.00670968 
-0.0333347 0.0110978 0.107399 0.813369 -0.387077 0.434283 
0.0321457 -0.00470592 0.0391602 -0.979347 0.200817 0.0234901 
0.040252 -0.0272047 0.12096 -0.823151 0.48849 0.289482 
-0.0180578 -0.0373131 0.107003 0.460927 0.770931 0.439559 
0.0473893 0.005636 0.12258 -0.931843 -0.110404 0.345659 
0.0194183 -0.0318335 0.107465 -0.412743 0.800341 0.434853 
0.0185236 0.00154933 0.0012671 -0.0728605 -0.101867 0.992126 
-0.0320253 -0.00996272 0.0602409 0.978158 0.192594 0.0781987 
0.0341273 -0.00227903 0.102169 -0.958112 0.0935552 0.270683 
0.0279627 0.0147679 0.0275931 -0.858616 -0.511005 0.0406462 
0.0024213 0.0123735 0.00249742 0.0198317 0.0928204 0.995485 
0.0137377 0.014835 0.001088 -0.184344 -0.0540978 0.981372 
0.00759319 0.0326323 0.0654936 -0.219304 -0.975109 0.0326708 
0.0352896 0.000628339 0.0767514 -0.996975 -0.0402942 0.0664619 
0.00448893 0.0351949 0.100238 -0.124239 -0.972644 0.196284 
-0.0274463 0.0116305 0.0575235 0.942112 -0.331406 -0.0509455 
-0.0141948 -0.00397849 0.00201281 -0.115217 -0.0524799 0.991953 
0.0307827 -0.0045474 0.0166677 -0.982622 0.137259 0.124954 
-0.028973 0.0169402 0.0762656 0.815604 -0.576713 0.0468188 
0.0324152 0.00649003 0.0491805 -0.990526 -0.131746 0.0387524 
-0.00803971 -0.00323887 0.00240603 -0.0691237 -0.0615656 0.995707 
0.0366262 0.0275466 0.123824 -0.715713 -0.618345 0.324661 
-0.0033604 0.0331482 0.070815 0.149662 -0.988735 0.00219288 
0.0197524 -0.00411389 0.000667724 -0.123703 0.0168509 0.992176 
0.0345695 -0.00891869 0.113965 -0.872985 0.156759 0.46187 
-0.0244561 -0.0209419 0.0396399 0.73983 0.668522 0.075694 
-0.00142027 0.0321848 0.0487723 0.0958717 -0.992066 0.0813278 
-0.0412239 -0.0165969 0.117332 0.878817 0.384339 0.282781 
-0.0241576 -0.0187351 0.0148205 0.779279 0.621175 0.0828652 
0.0174583 -0.0301296 0.0744088 -0.542976 0.836503 0.0737504 
0.034317 0.010809 0.10965 -0.840298 -0.338091 0.423785 
0.0315246 -0.0103657 0.049105 -0.935797 0.338653 0.0979709 
0.0327811 -0.0057184 0.0497458 -0.977231 0.192241 0.0897991 
-0.023402 -0.0390085 0.117336 0.568392 0.712803 0.410905 
-0.0381258 -0.0226065 0.124787 0.82752 0.470692 0.306038 
0.012897 -0.0324306 0.07666 -0.363297 0.925224 0.109436 
-0.0305442 -0.00734931 0.0276916 0.964842 0.259384 0.0424297 
0.00534962 -0.0301285 0.0286571 -0.177215 0.98084 0.0809136 
0.0341339 0.0100202 0.0816537 -0.946334 -0.320919 0.0382533 
-0.0280266 0.0138276 0.0907941 0.910267 -0.405722 0.0824773 
0.0290122 -0.00558437 0.0439923 -0.97306 0.226873 0.0410133 
-0.0134943 0.0165822 0.000886972 0.110005 -0.114488 0.987315 
0.012951 0.0101651 0.0019712 -0.00385949 0.0185701 0.99982 
0.0323967 0.0314316 0.124016 -0.666842 -0.699582 0.256725 
-0.013452 -0.0454771 0.120024 0.299355 0.916242 0.266248 
-0.0384364 0.00188919 0.105604 0.877293 -0.0591007 0.476303 
0.0274062 0.00220365 0.00152647 -0.698008 -0.16906 0.695848 
-0.0337419 -0.00464845 0.0710432 0.983538 0.166245 0.0708173 
0.0370231 0.00139952 0.0984922 -0.99101 -0.0881178 0.100672 
-0.032026 0.00294091 0.0436609 0.994845 -0.094213 0.0375169 
-0.0164657 0.0264645 0.0230847 0.534308 -0.837971 0.110997 
-0.0293517 -0.018845 0.0740254 0.831127 0.555753 -0.0191643 
-0.0120688 0.044105 0.123557 0.275299 -0.93477 0.224536 
-0.0334398 0.0148735 0.103465 0.85071 -0.46597 0.243237 
-0.0334164 0.00656949 0.0764519 0.969544 -0.241454 0.0410451 
-0.00823028 -0.00792113 0.00217341 -0.0675002 -0.102751 0.992414 
0.0115799 0.0322183 0.0765374 -0.317556 -0.9481 -0.0162751 
0.0194118 0.0379399 0.114621 -0.441937 -0.798887 0.408008 
-0.0273663 0.0132028 0.0136727 0.907124 -0.398219 0.136187 
0.0223689 0.0107769 0.00721551 -0.667263 -0.367462 0.647867 
0.0292408 0.0203046 0.0926474 -0.844943 -0.534025 0.029799 
-0.0111516 -0.0134519 0.0012893 0.0145851 0.0205337 0.999683 
0.0292689 0.0213828 0.0986358 -0.827586 -0.539167 0.156204 
0.0367538 -0.00515706 0.0984046 -0.970946 0.149324 0.186993 
0.0333166 -0.0333022 0.118533 -0.646892 0.685921 0.333232 
-0.0317303 0.000173496 0.0327219 0.998731 0.050332 0.00171801 
0.0469614 -0.0105498 0.121235 -0.896357 0.205467 0.392846 
0.0188606 0.0255346 0.0793713 -0.558175 -0.829104 0.032056 
-0.0385581 -0.00373512 0.105625 0.855556 -0.00483797 0.517688 
0.0026833 0.0328899 0.0611462 -0.0261094 -0.998954 0.0375301 
-0.0243657 -0.0399584 0.122787 0.587961 0.748645 0.306322 
-0.0208346 -0.0179668 0.0190881 0.743053 0.661125 0.103855 
0.00198627 -0.0296527 0.016911 -0.0146545 0.987088 0.159506 
-0.0196773 0.0110234 0.000542249 0.231959 -0.141767 0.962339 
-0.0343288 -0.00989645 0.0919844 0.966137 0.252174 0.0546627 
-0.00715148 0.0287909 0.0112412 0.199629 -0.955744 0.216107 
-0.0384361 -0.00190211 0.113218 0.921618 -0.0773246 0.380318 
0.00855212 0.0317988 0.0544699 -0.226513 -0.970495 0.0826572 
0.0344327 -0.0322025 0.123008 -0.687608 0.639041 0.344704 
-0.0313926 0.0166624 0.107738 0.729455 -0.507056 0.459118 
-0.00789601 -0.0441935 0.114894 0.0695225 0.94007 0.33382 
0.0338565 -0.0153853 0.098939 -0.901015 0.381838 0.205843 
-0.0282547 -0.0130118 0.0215658 0.896193 0.431911 0.101446 
0.0066094 -0.0121432 0.00176573 0.0344114 -0.106955 0.993668 
0.0318087 0.0056492 0.0339351 -0.974195 -0.218374 0.0570693 
0.0290817 0.01486 0.0886316 -0.879913 -0.47243 0.0506264 
0.025414 -0.00992452 0.00115648 -0.50303 0.228208 0.833596 
-0.0204531 0.0303654 0.11124 0.462602 -0.765035 0.448019 
-0.0235422 0.0239514 0.080717 0.612021 -0.78157 0.120739 
0.0324305 0.0119223 0.0704722 -0.933492 -0.331402 0.136985 
-0.0274572 -0.0169536 0.0407309 0.875625 0.48193 0.0320067 
-0.00906613 0.0312315 0.054546 0.297975 -0.954076 0.0308131 
0.0367038 0.00600473 0.0993828 -0.952567 -0.193845 0.234606 
0.0274641 -0.0222525 0.0818226 -0.729473 0.670613 0.134709 
0.0273101 0.0135524 0.0143732 -0.860198 -0.473081 0.190406 
0.0258584 -0.029984 0.104546 -0.568274 0.714925 0.407366 
-0.0135487 0.00481684 0.00227677 -0.110918 0.0237264 0.993546 
-0.0163244 -0.0123446 0.00050104 0.115391 0.0650462 0.991188 
-0.0272941 -0.00843694 0.0381131 0.963092 0.264153 0.0517336 
0.0250519 0.0206036 0.0949119 -0.756245 -0.623957 0.196908 
0.0231423 -0.0404963 0.123479 -0.390481 0.860827 0.326346 
0.0080431 0.000938377 0.00258879 0.0695723 -0.0243024 0.997281 
-0.0243702 -0.0250438 0.072352 0.711057 0.702364 0.0328973 
0.0112462 -0.0188278 -0.000191328 -0.0748837 0.205512 0.975786 
0.0245984 0.0243931 0.0770112 -0.648912 -0.757547 0.0709622 
-0.0201336 0.00512728 0.000880863 0.193636 -0.0815426 0.977679 
0.00781544 0.0112646 0.00234947 0.0700774 0.0753448 0.994692 
0.0446559 -0.00179297 0.124082 -0.900327 0.0572799 0.431428 
-0.0273889 -0.00461081 0.0242442 0.982178 0.176387 0.0649217 
0.0348472 0.00532168 0.0789113 -0.987052 -0.159878 -0.0129689 
-0.00364829 0.0334275 0.0768125 0.150503 -0.988543 0.011503 
-0.00801786 0.0328117 0.0817246 0.284265 -0.958159 0.033533 
-0.0103878 -0.0339982 0.0774111 0.247272 0.956868 0.152511 
-0.0367136 -0.0169912 0.116336 0.810184 0.452896 0.372137 
-0.00340608 -0.0336304 0.0610468 0.0296066 0.997455 0.0648627 
0.0190251 -0.0356441 0.11345 -0.403812 0.816493 0.412643 
-0.0258625 -0.0094392 0.0194159 0.913128 0.396764 0.0936762 
0.00750306 -0.0361578 0.0981451 -0.236055 0.951333 0.198102 
-0.0292717 -0.0123953 0.0840301 0.920449 0.383543 0.0752836 
-0.03421 0.000962158 0.0771872 0.998649 -0.0405756 0.0324538 
-0.00798397 0.0322017 0.0717558 0.302817 -0.952869 0.0185255 
-0.020309 -0.000964409 0.000828836 0.115426 -0.0251013 0.992999 
-0.00298607 0.0330353 0.066143 0.106578 -0.993072 0.049493 
-0.0137458 -0.0272983 0.0192173 0.453705 0.877919 0.153004 
-0.0183679 -0.0353933 0.111782 0.528207 0.728323 0.436512 
0.0309694 0.0230904 0.105198 -0.662835 -0.577419 0.476693 
0.00617066 0.0304913 0.02173 -0.186147 -0.981914 0.0345441 
-0.0177813 0.0377585 0.114216 0.435829 -0.811278 0.389719 
-0.0354642 -0.0273796 0.124413 0.796467 0.498074 0.342874 
-0.0319593 0.0139245 0.0964215 0.908176 -0.414069 0.0613512 
-0.00747755 0.0327997 0.104731 0.192074 -0.959458 0.206272 
0.00899119 -0.0303023 0.0404192 -0.320855 0.947114 0.0052432 
-0.0359825 -0.0207822 0.119589 0.8176 0.451807 0.356932 
0.00190567 -0.00449389 0.00255814 0.0235201 -0.0615495 0.997827 
0.0152921 -0.00866491 0.00121215 0.0234966 0.00464951 0.999713 
0.0156789 0.0292765 0.101491 -0.403034 -0.885396 0.231599 
-0.0325254 -0.0103085 0.069808 0.965319 0.251734 0.0692031 
0.0288575 -0.0130022 0.0311012 -0.891203 0.449232 0.0628285 
-0.0415853 0.00845929 0.124311 0.939165 -0.22009 0.263686 
0.0317422 -0.00872188 0.0902929 -0.967898 0.25126 0.00648785 
-0.0383132 0.00750699 0.106835 0.887609 -0.294126 0.354457 
-0.016822 -0.0350076 0.103036 0.499856 0.80721 0.313937 
0.0233164 -0.0223338 0.0455495 -0.709723 0.704216 0.019329 
-0.0313587 -0.0171558 0.107384 0.789349 0.470142 0.394836 
-0.0158259 0.000763592 0.00194121 -0.116225 -0.0225561 0.992967 
0.00658877 0.0366188 0.112075 -0.104626 -0.895468 0.432655 
-0.0348035 -0.0037682 0.0889202 0.989997 0.128039 0.0592628 
0.0247807 -0.0202357 0.0396556 -0.789985 0.6125 0.0277088 
-0.000588215 -0.0454519 0.123875 0.0107985 0.986749 0.161892 
-0.0200132 0.0248101 0.0963512 0.561243 -0.826847 0.0364718 
0.0226546 -0.0263297 0.10266 -0.575687 0.726717 0.374789 
-0.0295148 0.0131436 0.0506526 0.914021 -0.402829 0.0478888 
0.00487712 0.0338425 0.085593 -0.111304 -0.993107 0.0367403 
0.032498 0.00437248 0.0956253 -0.97962 -0.180462 0.0881961 
0.0316681 0.00456042 0.0824201 -0.976864 -0.213325 0.0151265 
-0.0324482 0.027864 0.124691 0.665059 -0.696424 0.26961 
0.0161709 0.0366876 0.118199 -0.307009 -0.867186 0.392088 
-0.0423651 -0.000890769 0.123393 0.964634 -0.0342778 0.261355 
0.00829298 -0.0284287 0.0537029 -0.373282 0.926131 0.0542315 
0.00802434 0.0309567 0.0408811 -0.166946 -0.982085 0.0873926 
0.00324502 0.0436154 0.123976 -0.0203587 -0.967587 0.251715 
-0.00537936 0.0292047 0.061614 0.196261 -0.979948 0.0344033 
-0.0129296 -0.00870724 0.00179398 -0.0622409 -0.0815721 0.994722 
0.017011 0.0272118 0.0376488 -0.469524 -0.879005 0.0830534 
0.00120208 -0.0305435 0.0262511 -0.0127992 0.995706 0.0916794 
-0.0112699 0.0324831 0.0938757 0.356195 -0.933398 0.0435015 
-0.00739373 0.0430729 0.119588 0.0935176 -0.958375 0.269764 
-0.0412481 -0.00366862 0.109503 0.87363 -0.0330919 0.485464 
0.0336294 -0.0039238 0.0603257 -0.99599 0.0696218 0.0561883 
-0.0248357 -0.0278727 0.109553 0.633816 0.690291 0.348964 
0.0278868 -0.0197092 0.0658745 -0.763135 0.643583 0.05853 
0.0108069 0.0414965 0.124535 -0.137235 -0.954852 0.263485 
0.0326172 -0.00216588 0.0896191 -0.996502 -0.0460334 0.0697468 
-0.022715 0.0244084 0.073929 0.644438 -0.762222 0.0609749 
-0.00448562 0.0310257 0.0210566 0.155952 -0.987292 0.030554 
0.0304098 -0.0121847 0.0449471 -0.88254 0.463165 0.0812505 
0.029433 0.00303436 0.00988369 -0.944001 -0.135237 0.300953 
0.0153156 0.0391391 0.112223 -0.242619 -0.86009 0.448756 
-0.0302865 0.0250168 0.117885 0.701988 -0.608013 0.370854 
-0.00677185 -0.044236 0.123848 0.099991 0.972224 0.211618 
-0.0339635 5.3445e-05 0.0700711 0.991559 -0.0207479 0.127988 
-0.0272136 -0.0168695 0.035856 0.869686 0.489751 0.0615598 
-0.000735788 -0.0425402 0.119919 -0.0543406 0.91777 0.393378 
-0.0163691 -0.0300264 0.0645219 0.444272 0.895096 -0.0377518 
